387948.731001 3551528.838997 -5.200001 0 145 109 0.000000
387950.990000 3551530.160004 5.041000 255 222 0 0.000000
387951.420000 3551529.768997 0.431000 108 255 0 0.000000
387952.410999 3551529.988998 1.170000 137 255 0 0.000000
387950.139999 3551529.800003 4.889999 255 228 0 0.000000
387951.030001 3551529.959000 5.181000 255 216 0 0.000000
387951.600000 3551529.730003 2.131001 174 255 0 0.000000
387952.041000 3551529.040001 -5.159000 0 146 108 0.000000
387948.731001 3551528.988998 1.250000 140 255 0 0.000000
387950.150999 3551529.580002 4.730000 255 234 0 0.000000
387951.629999 3551529.500000 2.091000 172 255 0 0.000000
387952.020000 3551528.660004 -6.130001 0 109 145 0.000000
387950.129999 3551529.319000 4.381001 255 248 0 0.000000
387950.801001 3551529.190002 2.459999 187 255 0 0.000000
387951.660999 3551529.268997 2.030001 170 255 0 0.000000
387952.059999 3551528.389000 -6.130001 0 109 145 0.000000
387949.981001 3551528.918999 2.990999 207 255 0 0.000000
387950.809999 3551528.948997 2.341000 182 255 0 0.000000
387950.990000 3551527.948997 -6.150002 0 108 146 0.000000
387949.709999 3551528.370003 0.730000 120 255 0 0.000000
387950.879999 3551528.768997 2.631001 193 255 0 0.000000
387949.629999 3551528.000000 -0.118999 87 255 0 0.000000
387950.871000 3551528.488998 2.260000 179 255 0 0.000000
387949.700001 3551527.800003 0.160000 97 255 0 0.000000
387950.650999 3551527.900002 -0.110001 87 255 0 0.000000
387949.761000 3551533.860001 2.209999 177 255 0 0.000000
387950.791000 3551533.778999 3.061001 210 255 0 0.000000
387951.090000 3551533.860001 -3.759001 0 201 53 0.000000
387948.971001 3551533.290001 2.611000 192 255 0 0.000000
387950.020000 3551533.440002 3.639999 233 255 0 0.000000
387950.850000 3551533.569000 3.250000 218 255 0 0.000000
387951.150999 3551533.610001 -3.500000 0 210 44 0.000000
387948.990000 3551533.080002 2.480000 188 255 0 0.000000
387950.191000 3551533.268997 4.721001 255 234 0 0.000000
387950.051001 3551533.180000 -4.500000 0 171 83 0.000000
387951.209999 3551533.360001 -3.299000 0 219 35 0.000000
387952.280001 3551533.528999 -2.799000 0 237 17 0.000000
387949.011000 3551532.838997 2.420000 186 255 0 0.000000
387950.209999 3551533.040001 4.561001 255 240 0 0.000000
387950.871000 3551533.120003 2.780001 199 255 0 0.000000
387951.250000 3551533.098999 -3.309999 0 218 36 0.000000
387952.320000 3551533.268997 -2.830000 0 237 17 0.000000
387949.301001 3551532.698997 4.041000 249 255 0 0.000000
387950.129999 3551532.808998 3.701000 235 255 0 0.000000
387950.910999 3551532.910004 2.791000 200 255 0 0.000000
387951.221001 3551532.830002 -4.240000 0 182 72 0.000000
387952.340000 3551533.018997 -3.090000 0 226 28 0.000000
387948.520000 3551532.370003 4.420000 255 246 0 0.000000
387949.309999 3551532.480003 3.900999 243 255 0 0.000000
387950.250000 3551532.628998 4.361000 255 249 0 0.000000
387951.111000 3551532.760002 4.451000 255 245 0 0.000000
387951.301001 3551532.588997 -3.700001 0 203 51 0.000000
387952.389999 3551532.768997 -2.959000 0 231 23 0.000000
387948.650999 3551532.190002 4.971001 255 225 0 0.000000
387949.420000 3551532.290001 4.389999 255 247 0 0.000000
387948.971001 3551531.900002 -5.990000 0 114 140 0.000000
387951.160999 3551532.550003 4.570000 255 240 0 0.000000
387951.670000 3551532.500000 0.291000 103 255 0 0.000000
387952.400999 3551532.488998 -3.469999 0 212 42 0.000000
387948.721001 3551532.000000 5.190001 255 216 0 0.000000
387949.090000 3551531.940002 1.959999 168 255 0 0.000000
387950.371000 3551532.230003 4.771000 255 232 0 0.000000
387951.200001 3551532.348999 4.670000 255 237 0 0.000000
387951.889999 3551532.378998 2.681000 195 255 0 0.000000
387948.580999 3551531.730003 4.221001 255 254 0 0.000000
387949.490000 3551531.878998 4.459999 255 245 0 0.000000
387950.431000 3551532.028999 4.990999 255 224 0 0.000000
387951.170000 3551532.098999 4.000000 247 255 0 0.000000
387951.920000 3551532.150002 2.549999 190 255 0 0.000000
387948.731001 3551531.569000 4.889999 255 228 0 0.000000
387949.681000 3551531.738998 5.510000 255 204 0 0.000000
387950.471001 3551531.830002 5.061001 255 221 0 0.000000
387951.181000 3551531.870003 3.799999 239 255 0 0.000000
387951.941000 3551531.918999 2.400999 184 255 0 0.000000
387948.750000 3551531.360001 4.830999 255 230 0 0.000000
387949.770000 3551531.569000 5.910000 255 188 0 0.000000
387950.520000 3551531.639000 5.190001 255 216 0 0.000000
387951.150999 3551531.620003 3.100000 212 255 0 0.000000
387951.340000 3551531.160004 -5.969999 0 115 139 0.000000
387950.590000 3551531.448997 5.500000 255 204 0 0.000000
387951.240000 3551531.440002 3.730000 237 255 0 0.000000
387952.080999 3551531.550003 3.370001 222 255 0 0.000000
387952.481001 3551531.050003 -5.950001 0 115 139 0.000000
387948.950001 3551531.018997 5.631001 255 199 0 0.000000
387949.889999 3551531.198997 6.320000 255 172 0 0.000000
387950.200001 3551530.959000 2.091000 172 255 0 0.000000
387950.950001 3551530.959000 0.420000 108 255 0 0.000000
387951.971001 3551531.180000 1.341000 143 255 0 0.000000
387952.871000 3551531.278999 0.931000 127 255 0 0.000000
387948.900999 3551530.760002 5.131001 255 219 0 0.000000
387949.950001 3551531.018997 6.510000 255 165 0 0.000000
387950.709999 3551531.088997 6.000000 255 185 0 0.000000
387951.410999 3551531.098999 4.750000 255 234 0 0.000000
387952.139999 3551531.098999 3.260000 218 255 0 0.000000
387949.889999 3551530.750000 5.861000 255 190 0 0.000000
387950.709999 3551530.860001 5.709999 255 196 0 0.000000
387951.261000 3551530.720001 2.870001 203 255 0 0.000000
387951.559999 3551530.139000 -5.209000 0 144 110 0.000000
387952.920000 3551530.778999 0.451000 109 255 0 0.000000
387948.809999 3551530.250000 4.201000 255 255 0 0.000000
387949.820000 3551530.480003 5.160000 255 217 0 0.000000
387950.681000 3551530.610001 5.250000 255 214 0 0.000000
387950.871000 3551530.058998 -1.618999 29 255 0 0.000000
387952.191000 3551530.639000 2.900999 204 255 0 0.000000
387952.959999 3551530.540001 0.389999 106 255 0 0.000000
387948.931000 3551530.098999 4.730000 255 234 0 0.000000
387949.820000 3551530.250000 4.951000 255 225 0 0.000000
387950.731001 3551530.418999 5.361000 255 210 0 0.000000
387951.340000 3551530.300003 3.010000 208 255 0 0.000000
387952.111000 3551530.260002 1.350000 144 255 0 0.000000
387950.121000 3551529.598999 -0.069000 88 255 0 0.000000
387951.320000 3551530.018997 2.451000 186 255 0 0.000000
387952.150999 3551530.040001 1.361000 144 255 0 0.000000
387952.791000 3551529.550003 -4.750000 0 162 92 0.000000
387948.959999 3551529.660004 4.591000 255 240 0 0.000000
387949.889999 3551529.838997 5.021000 255 223 0 0.000000
387950.791000 3551530.000000 5.370001 255 209 0 0.000000
387951.350000 3551529.778999 2.320000 181 255 0 0.000000
387951.731001 3551529.069000 -5.200001 0 145 109 0.000000
387949.931000 3551529.650002 5.070000 255 221 0 0.000000
387950.700001 3551529.680000 4.370001 255 248 0 0.000000
387951.350000 3551529.518997 1.980000 169 255 0 0.000000
387951.761000 3551528.790001 -5.368999 0 138 116 0.000000
387949.371000 3551528.860001 0.791000 122 255 0 0.000000
387950.520000 3551529.220001 2.480000 188 255 0 0.000000
387951.350000 3551529.238998 1.591000 153 255 0 0.000000
387951.750000 3551528.418999 -6.130001 0 109 145 0.000000
387949.941000 3551529.168999 4.721001 255 234 0 0.000000
387950.559999 3551528.988998 2.500000 189 255 0 0.000000
387950.691000 3551527.980003 -6.150002 0 108 146 0.000000
387949.431000 3551528.400002 0.791000 122 255 0 0.000000
387950.559999 3551528.738998 2.260000 179 255 0 0.000000
387951.459999 3551528.848999 2.111000 173 255 0 0.000000
387950.541000 3551528.430000 1.730000 159 255 0 0.000000
387950.570000 3551528.198997 1.709999 158 255 0 0.000000
387951.551001 3551528.440002 2.381001 183 255 0 0.000000
387950.580999 3551527.948997 1.570000 152 255 0 0.000000
387950.750000 3551534.139000 -3.180000 0 223 31 0.000000
387949.879999 3551533.738998 -2.129999 8 255 0 0.000000
387950.770000 3551533.878998 -3.438999 0 213 41 0.000000
387949.570000 3551533.440002 2.681000 195 255 0 0.000000
387950.511000 3551533.588997 3.091000 211 255 0 0.000000
387950.801001 3551533.628998 -3.610001 0 206 48 0.000000
387948.691000 3551533.088997 2.639999 194 255 0 0.000000
387949.611000 3551533.220001 2.709999 197 255 0 0.000000
387950.559999 3551533.370003 3.150999 213 255 0 0.000000
387950.801001 3551533.370003 -4.009001 0 191 63 0.000000
387951.920000 3551533.540001 -2.930000 0 233 21 0.000000
387948.740000 3551532.870003 2.750000 198 255 0 0.000000
387949.670000 3551533.010002 2.850000 202 255 0 0.000000
387950.590000 3551533.150002 3.100000 212 255 0 0.000000
387950.861000 3551533.110001 -3.860001 0 196 58 0.000000
387951.959999 3551533.290001 -3.080000 0 227 27 0.000000
387949.011000 3551532.720001 4.230000 255 254 0 0.000000
387949.879999 3551532.838997 4.209999 255 255 0 0.000000
387950.801001 3551532.988998 4.690001 255 236 0 0.000000
387950.850000 3551532.838997 -4.450001 0 174 80 0.000000
387952.000000 3551533.040001 -3.069000 0 227 27 0.000000
387948.801001 3551532.430000 2.631001 193 255 0 0.000000
387949.861000 3551532.620003 3.811001 240 255 0 0.000000
387950.840000 3551532.790001 4.780001 255 232 0 0.000000
387950.761000 3551532.528999 -5.959000 0 115 139 0.000000
387952.030001 3551532.778999 -3.188999 0 222 32 0.000000
387949.000000 3551532.268997 3.740999 237 255 0 0.000000
387949.450001 3551532.238998 0.410000 107 255 0 0.000000
387950.900999 3551532.588997 5.070000 255 221 0 0.000000
387950.809999 3551532.260002 -5.919001 0 117 137 0.000000
387952.041000 3551532.510002 -3.659000 0 204 50 0.000000
387949.170000 3551532.110001 4.591000 255 240 0 0.000000
387949.971001 3551532.198997 4.139999 252 255 0 0.000000
387950.931000 3551532.378998 5.021000 255 223 0 0.000000
387951.490000 3551532.348999 1.721001 158 255 0 0.000000
387952.500000 3551532.550003 3.120001 213 255 0 0.000000
387947.830999 3551531.580002 1.709999 158 255 0 0.000000
387949.250000 3551531.918999 4.920000 255 227 0 0.000000
387950.000000 3551531.988998 4.100000 251 255 0 0.000000
387950.950001 3551532.168999 4.881001 255 228 0 0.000000
387951.530001 3551532.128998 1.730000 159 255 0 0.000000
387952.530001 3551532.330002 3.160000 214 255 0 0.000000
387948.791000 3551531.480003 1.650999 156 255 0 0.000000
387950.030001 3551531.768997 4.061001 249 255 0 0.000000
387949.900999 3551531.308998 -5.430000 0 136 118 0.000000
387951.721001 3551532.010002 3.631001 232 255 0 0.000000
387952.041000 3551531.610001 -5.938999 0 115 139 0.000000
387948.200001 3551531.260002 3.459999 225 255 0 0.000000
387949.250000 3551531.470001 4.480000 255 244 0 0.000000
387950.121000 3551531.598999 4.459999 255 245 0 0.000000
387950.900999 3551531.680000 3.811001 240 255 0 0.000000
387951.761000 3551531.800003 3.681000 234 255 0 0.000000
387952.080999 3551531.348999 -5.950001 0 115 139 0.000000
387948.280001 3551531.069000 3.701000 235 255 0 0.000000
387949.420000 3551531.338997 5.431000 255 207 0 0.000000
387950.330999 3551531.500000 5.881001 255 189 0 0.000000
387950.941000 3551531.470001 3.791000 239 255 0 0.000000
387951.770000 3551531.569000 3.330999 221 255 0 0.000000
387952.580999 3551531.620003 2.181000 176 255 0 0.000000
387948.350000 3551530.870003 3.951000 245 255 0 0.000000
387949.520000 3551531.168999 5.861000 255 190 0 0.000000
387949.981001 3551531.040001 2.870001 203 255 0 0.000000
387951.801001 3551531.338997 3.291000 219 255 0 0.000000
387952.559999 3551531.319000 1.150999 136 255 0 0.000000
387948.541000 3551530.750000 4.820000 255 231 0 0.000000
387949.621000 3551531.018997 6.291000 255 174 0 0.000000
387950.431000 3551531.128998 6.201000 255 177 0 0.000000
387950.910999 3551530.959000 2.861000 202 255 0 0.000000
387951.809999 3551531.110001 3.030001 209 255 0 0.000000
387952.250000 3551530.610001 -5.099001 0 148 106 0.000000
387949.481001 3551530.690002 5.120001 255 219 0 0.000000
387950.191000 3551530.709000 3.980000 246 255 0 0.000000
387951.181000 3551530.948997 5.250000 255 214 0 0.000000
387951.830999 3551530.860001 2.820000 201 255 0 0.000000
387952.700001 3551530.948997 2.291000 180 255 0 0.000000
387948.551001 3551530.300003 4.521000 255 242 0 0.000000
387949.590000 3551530.550003 5.690001 255 197 0 0.000000
387951.250000 3551530.778999 5.580999 255 201 0 0.000000
387951.801001 3551530.569000 1.959999 168 255 0 0.000000
387952.731001 3551530.730003 2.230000 178 255 0 0.000000
387948.621000 3551530.120003 4.740999 255 234 0 0.000000
387949.541000 3551530.290001 5.139999 255 218 0 0.000000
387950.450001 3551530.459000 5.580999 255 201 0 0.000000
387951.240000 3551530.540001 5.201000 255 216 0 0.000000
387951.900999 3551530.440002 2.881001 203 255 0 0.000000
387952.761000 3551530.510002 2.260000 179 255 0 0.000000
387948.691000 3551529.930000 5.010000 255 223 0 0.000000
387949.379999 3551529.930000 3.861000 241 255 0 0.000000
387950.490000 3551530.250000 5.631001 255 199 0 0.000000
387951.280001 3551530.338997 5.271000 255 213 0 0.000000
387951.910999 3551530.168999 2.490999 188 255 0 0.000000
387952.801001 3551530.278999 2.230000 178 255 0 0.000000
387949.629999 3551529.889000 5.320000 255 211 0 0.000000
387950.511000 3551530.050003 5.600000 255 200 0 0.000000
387951.301001 3551530.120003 5.160000 255 217 0 0.000000
387951.910999 3551529.900002 2.000000 169 255 0 0.000000
387949.600000 3551529.639000 4.920000 255 227 0 0.000000
387950.400999 3551529.690002 4.389999 255 247 0 0.000000
387951.330999 3551529.910004 5.160000 255 217 0 0.000000
387952.511000 3551529.018997 -5.000000 0 152 102 0.000000
387949.111000 3551528.948997 1.299999 142 255 0 0.000000
387950.410999 3551529.470001 4.260000 255 252 0 0.000000
387951.330999 3551529.660004 4.780001 255 232 0 0.000000
387951.990000 3551529.459000 2.131001 174 255 0 0.000000
387949.670000 3551529.230003 4.980000 255 225 0 0.000000
387950.240000 3551529.018997 2.500000 189 255 0 0.000000
387951.080999 3551529.058998 1.799999 161 255 0 0.000000
387951.431000 3551528.190002 -6.130001 0 109 145 0.000000
387950.280001 3551528.800003 2.611000 192 255 0 0.000000
387950.371000 3551527.738998 -6.150002 0 108 146 0.000000
387950.320000 3551528.588997 2.660000 195 255 0 0.000000
387950.240000 3551528.220001 1.681000 157 255 0 0.000000
387951.221001 3551528.430000 2.221001 177 255 0 0.000000
387950.139999 3551527.790001 0.471001 109 255 0 0.000000
387951.041000 3551527.838997 -0.139000 86 255 0 0.000000
387950.111000 3551534.040001 2.341000 182 255 0 0.000000
387950.150999 3551533.808998 2.370001 183 255 0 0.000000
387950.520000 3551533.918999 -3.349001 0 216 38 0.000000
387949.270000 3551533.459000 2.280001 180 255 0 0.000000
387950.170000 3551533.588997 2.181000 176 255 0 0.000000
387950.541000 3551533.660004 -3.580000 0 207 47 0.000000
387951.580999 3551533.819000 -3.639000 0 205 49 0.000000
387950.420000 3551533.410004 4.070000 249 255 0 0.000000
387951.059999 3551533.500000 1.681000 157 255 0 0.000000
387951.639999 3551533.569000 -3.259001 0 220 34 0.000000
387949.379999 3551533.018997 2.561001 191 255 0 0.000000
387950.450001 3551533.190002 4.010000 247 255 0 0.000000
387951.681000 3551533.308998 -3.400000 0 214 40 0.000000
387948.520000 3551532.680000 2.639999 194 255 0 0.000000
387949.471001 3551532.819000 2.940001 205 255 0 0.000000
387950.490000 3551532.988998 4.049999 249 255 0 0.000000
387951.059999 3551533.028999 0.791000 122 255 0 0.000000
387951.731001 3551533.069000 -3.250000 0 220 34 0.000000
387952.761000 3551533.220001 -3.090000 0 226 28 0.000000
387949.541000 3551532.610001 3.190001 215 255 0 0.000000
387950.580999 3551532.790001 4.570000 255 240 0 0.000000
387951.170000 3551532.819000 1.580999 153 255 0 0.000000
387951.780001 3551532.808998 -3.150000 0 224 30 0.000000
387952.809999 3551532.970001 -2.950001 0 232 22 0.000000
387948.830999 3551532.308998 4.120001 252 255 0 0.000000
387950.611000 3551532.588997 4.561001 255 240 0 0.000000
387951.481001 3551532.720001 4.740999 255 234 0 0.000000
387951.791000 3551532.550003 -3.528999 0 210 44 0.000000
387952.830999 3551532.709000 -3.259001 0 220 34 0.000000
387948.709999 3551532.050003 3.170000 214 255 0 0.000000
387949.801001 3551532.250000 4.631001 255 238 0 0.000000
387950.740000 3551532.418999 5.370001 255 209 0 0.000000
387951.471001 3551532.488998 4.260000 255 252 0 0.000000
387951.840000 3551532.290001 -3.540001 0 209 45 0.000000
387948.971001 3551531.918999 4.639999 255 237 0 0.000000
387949.840000 3551532.040001 4.650999 255 237 0 0.000000
387950.700001 3551532.168999 4.709999 255 235 0 0.000000
387951.389999 3551532.209000 2.881001 203 255 0 0.000000
387952.240000 3551532.308998 2.250000 179 255 0 0.000000
387947.871000 3551531.470001 3.100000 212 255 0 0.000000
387949.011000 3551531.709000 4.650999 255 237 0 0.000000
387950.041000 3551531.910004 5.900999 255 189 0 0.000000
387950.780001 3551531.988998 5.131001 255 219 0 0.000000
387951.481001 3551532.028999 3.591000 231 255 0 0.000000
387952.280001 3551532.088997 2.291000 180 255 0 0.000000
387947.920000 3551531.260002 3.201000 216 255 0 0.000000
387950.020000 3551531.690002 5.541000 255 203 0 0.000000
387950.761000 3551531.760002 4.690001 255 236 0 0.000000
387951.551001 3551531.838997 4.041000 249 255 0 0.000000
387952.231001 3551531.790001 0.920000 127 255 0 0.000000
387948.520000 3551531.010002 1.041000 132 255 0 0.000000
387950.100000 3551531.510002 5.900999 255 189 0 0.000000
387950.761000 3551531.528999 4.370001 255 248 0 0.000000
387951.530001 3551531.580002 3.320000 220 255 0 0.000000
387952.361000 3551531.660004 2.389999 184 255 0 0.000000
387948.100000 3551530.889000 3.861000 241 255 0 0.000000
387948.551001 3551530.778999 1.021000 131 255 0 0.000000
387950.170000 3551531.338997 6.181000 255 177 0 0.000000
387950.941000 3551531.418999 5.721001 255 195 0 0.000000
387951.559999 3551531.370003 3.330999 221 255 0 0.000000
387952.371000 3551531.410004 2.100000 173 255 0 0.000000
387952.990000 3551531.000000 -6.008999 0 113 141 0.000000
387948.000000 3551530.598999 3.091000 211 255 0 0.000000
387949.320000 3551530.980003 5.830999 255 191 0 0.000000
387950.231001 3551531.150002 6.381001 255 170 0 0.000000
387950.981001 3551531.220001 5.780001 255 193 0 0.000000
387950.830999 3551530.389000 -6.098999 0 109 145 0.000000
387952.490000 3551531.290001 3.510000 228 255 0 0.000000
387953.059999 3551530.790001 -5.159000 0 146 108 0.000000
387948.410999 3551530.598999 5.250000 255 214 0 0.000000
387949.350000 3551530.778999 5.850000 255 190 0 0.000000
387950.100000 3551530.838997 5.181000 255 216 0 0.000000
387951.030001 3551531.040001 5.971001 255 186 0 0.000000
387951.600000 3551530.900002 2.951000 206 255 0 0.000000
387952.459999 3551530.988998 2.389999 184 255 0 0.000000
387953.121000 3551530.558998 -4.688999 0 164 90 0.000000
387948.441000 3551530.378998 5.221001 255 215 0 0.000000
387949.200001 3551530.448997 4.660000 255 237 0 0.000000
387950.221001 3551530.690002 5.820000 255 192 0 0.000000
387950.950001 3551530.730003 4.870001 255 228 0 0.000000
387951.410999 3551530.410004 0.049999 93 255 0 0.000000
387952.481001 3551530.738998 2.100000 173 255 0 0.000000
387948.340000 3551530.098999 4.471001 255 244 0 0.000000
387949.280001 3551530.278999 4.959999 255 225 0 0.000000
387950.250000 3551530.500000 5.830999 255 191 0 0.000000
387951.051001 3551530.598999 5.591000 255 201 0 0.000000
387951.020000 3551529.650002 -5.379999 0 138 116 0.000000
387952.530001 3551530.528999 2.291000 180 255 0 0.000000
387948.129999 3551529.730003 3.091000 211 255 0 0.000000
387949.350000 3551530.098999 5.250000 255 214 0 0.000000
387949.889999 3551529.940002 2.670000 195 255 0 0.000000
387951.051001 3551530.360001 5.299999 255 212 0 0.000000
387951.441000 3551529.878998 -0.549000 70 255 0 0.000000
387952.500000 3551530.198997 1.190001 138 255 0 0.000000
387948.850000 3551529.459000 1.600000 154 255 0 0.000000
387951.059999 3551530.128998 5.070000 255 221 0 0.000000
387951.670000 3551529.930000 2.070000 171 255 0 0.000000
387952.530001 3551529.948997 1.021000 131 255 0 0.000000
387948.879999 3551529.230003 1.570000 152 255 0 0.000000
387950.250000 3551529.800003 5.091000 255 220 0 0.000000
387951.100000 3551529.918999 5.120001 255 219 0 0.000000
387951.500000 3551529.378998 -0.729000 63 255 0 0.000000
387952.250000 3551529.040001 -5.110001 0 148 106 0.000000
387948.871000 3551528.970001 1.299999 142 255 0 0.000000
387950.181000 3551529.480003 4.280001 255 252 0 0.000000
387951.160999 3551529.750000 5.459999 255 206 0 0.000000
387951.750000 3551529.480003 2.131001 174 255 0 0.000000
387952.240000 3551528.650002 -6.110001 0 109 145 0.000000
387950.011000 3551529.040001 2.549999 190 255 0 0.000000
387950.900999 3551529.160004 2.420000 186 255 0 0.000000
387951.709999 3551529.128998 1.160000 136 255 0 0.000000
387950.020000 3551528.800003 2.420000 186 255 0 0.000000
387950.931000 3551528.930000 2.400999 184 255 0 0.000000
387951.209999 3551527.940002 -6.159000 0 107 147 0.000000
387949.791000 3551528.238998 0.170000 98 255 0 0.000000
387950.990000 3551528.738998 2.639999 194 255 0 0.000000
387949.879999 3551528.080002 0.650999 117 255 0 0.000000
387950.981001 3551528.448997 2.181000 176 255 0 0.000000
387949.820000 3551527.709000 -0.180000 85 255 0 0.000000
387950.791000 3551527.848999 -0.209000 83 255 0 0.000000
387949.910999 3551533.848999 2.330999 182 255 0 0.000000
387950.330999 3551533.970001 -2.680000 0 243 11 0.000000
387950.100000 3551533.650002 3.650999 233 255 0 0.000000
387950.910999 3551533.768997 3.010000 208 255 0 0.000000
387951.309999 3551533.870003 -3.799000 0 199 55 0.000000
387950.950001 3551533.558998 3.091000 211 255 0 0.000000
387951.389999 3551533.620003 -3.309999 0 218 36 0.000000
387950.291000 3551533.250000 4.660000 255 237 0 0.000000
387950.861000 3551533.308998 1.701000 157 255 0 0.000000
387951.441000 3551533.370003 -3.110001 0 225 29 0.000000
387949.471001 3551532.910004 4.620001 255 238 0 0.000000
387950.270000 3551533.018997 4.221001 255 254 0 0.000000
387950.910999 3551533.088997 1.811001 162 255 0 0.000000
387951.481001 3551533.110001 -3.229000 0 221 33 0.000000
387952.511000 3551533.268997 -2.938999 0 232 22 0.000000
387948.379999 3551532.500000 3.021000 209 255 0 0.000000
387949.481001 3551532.690002 4.459999 255 245 0 0.000000
387950.340000 3551532.819000 4.510000 255 243 0 0.000000
387951.030001 3551532.889000 2.701000 196 255 0 0.000000
387951.500000 3551532.848999 -3.528999 0 210 44 0.000000
387952.551001 3551533.018997 -2.930000 0 233 21 0.000000
387948.621000 3551532.348999 4.341000 255 249 0 0.000000
387949.420000 3551532.448997 3.791000 239 255 0 0.000000
387950.350000 3551532.598999 4.260000 255 252 0 0.000000
387951.231001 3551532.750000 4.549999 255 241 0 0.000000
387951.541000 3551532.588997 -3.520000 0 210 44 0.000000
387952.580999 3551532.750000 -3.360001 0 216 38 0.000000
387948.639999 3551532.139000 4.240999 255 253 0 0.000000
387949.541000 3551532.268997 4.400999 255 247 0 0.000000
387949.231001 3551531.910004 -5.979000 0 114 140 0.000000
387951.261000 3551532.540001 4.500000 255 243 0 0.000000
387951.850000 3551532.510002 0.620001 115 255 0 0.000000
387952.621000 3551532.500000 -3.319000 0 217 37 0.000000
387948.731001 3551531.948997 4.561001 255 240 0 0.000000
387949.511000 3551532.040001 3.910000 243 255 0 0.000000
387950.450001 3551532.198997 4.549999 255 241 0 0.000000
387951.301001 3551532.330002 4.530001 255 242 0 0.000000
387951.639999 3551532.088997 -3.309999 0 218 36 0.000000
387948.840000 3551531.768997 5.049999 255 222 0 0.000000
387950.500000 3551532.000000 4.681000 255 236 0 0.000000
387951.240000 3551532.058998 3.541000 229 255 0 0.000000
387951.511000 3551531.698997 -5.930000 0 116 138 0.000000
387948.830999 3551531.540001 4.780001 255 232 0 0.000000
387949.879999 3551531.760002 6.170000 255 178 0 0.000000
387950.570000 3551531.808998 5.080999 255 220 0 0.000000
387951.309999 3551531.870003 3.971001 246 255 0 0.000000
387952.080999 3551531.910004 2.320000 181 255 0 0.000000
387948.879999 3551531.348999 4.910000 255 227 0 0.000000
387949.920000 3551531.569000 6.271000 255 174 0 0.000000
387950.660999 3551531.650002 5.600000 255 200 0 0.000000
387951.320000 3551531.639000 3.631001 232 255 0 0.000000
387952.160999 3551531.738998 3.091000 211 255 0 0.000000
387949.000000 3551531.190002 5.471001 255 205 0 0.000000
387950.660999 3551531.418999 5.320000 255 211 0 0.000000
387951.280001 3551531.370003 2.820000 201 255 0 0.000000
387952.191000 3551531.510002 2.990999 207 255 0 0.000000
387952.721001 3551531.058998 -5.969999 0 115 139 0.000000
387949.059999 3551531.000000 5.670000 255 198 0 0.000000
387950.020000 3551531.198997 6.549999 255 163 0 0.000000
387950.250000 3551530.878998 1.139999 136 255 0 0.000000
387950.580999 3551530.459000 -5.990000 0 114 140 0.000000
387952.250000 3551531.319000 3.410000 224 255 0 0.000000
387952.761000 3551530.768997 -6.098999 0 109 145 0.000000
387947.950001 3551530.500000 3.940001 244 255 0 0.000000
387949.030001 3551530.750000 5.250000 255 214 0 0.000000
387949.981001 3551530.948997 6.021000 255 184 0 0.000000
387950.761000 3551531.028999 5.600000 255 200 0 0.000000
387951.520000 3551531.088997 4.771000 255 232 0 0.000000
387952.221001 3551531.010002 2.280001 180 255 0 0.000000
387947.820000 3551530.190002 3.061001 210 255 0 0.000000
387949.020000 3551530.528999 5.010000 255 223 0 0.000000
387950.000000 3551530.730003 5.889999 255 189 0 0.000000
387950.830999 3551530.870003 6.010000 255 184 0 0.000000
387951.541000 3551530.870003 4.670000 255 237 0 0.000000
387952.170000 3551530.668999 0.910000 127 255 0 0.000000
387952.900999 3551530.348999 -4.709000 0 163 91 0.000000
387949.059999 3551530.330002 5.070000 255 221 0 0.000000
387950.000000 3551530.510002 5.709999 255 196 0 0.000000
387950.791000 3551530.598999 5.291000 255 212 0 0.000000
387951.410999 3551530.470001 2.639999 194 255 0 0.000000
387952.320000 3551530.620003 2.841000 201 255 0 0.000000
387953.121000 3551530.540001 0.420000 108 255 0 0.000000
387947.861000 3551529.738998 2.889999 204 255 0 0.000000
387949.011000 3551530.058998 4.510000 255 243 0 0.000000
387951.420000 3551530.220001 2.361000 183 255 0 0.000000
387952.160999 3551530.058998 -0.669001 65 255 0 0.000000
387947.879999 3551529.510002 2.841000 201 255 0 0.000000
387949.041000 3551529.848999 4.521000 255 242 0 0.000000
387949.350000 3551529.459000 0.010000 91 255 0 0.000000
387950.861000 3551530.198997 5.410000 255 207 0 0.000000
387951.441000 3551529.980003 2.170000 176 255 0 0.000000
387952.309999 3551530.028999 1.381001 145 255 0 0.000000
387948.700001 3551529.319000 1.971001 168 255 0 0.000000
387949.971001 3551529.778999 4.690001 255 236 0 0.000000
387950.889999 3551529.980003 5.330999 255 210 0 0.000000
387951.490000 3551529.768997 2.361000 183 255 0 0.000000
387952.330999 3551529.768997 1.100000 134 255 0 0.000000
387949.990000 3551529.558998 4.620001 255 238 0 0.000000
387950.639999 3551529.440002 2.570000 191 255 0 0.000000
387951.459999 3551529.459000 1.570000 152 255 0 0.000000
387951.971001 3551528.709000 -6.118999 0 109 145 0.000000
387950.011000 3551529.319000 4.480000 255 244 0 0.000000
387950.660999 3551529.190002 2.431000 186 255 0 0.000000
387951.530001 3551529.278999 2.021000 170 255 0 0.000000
387952.020000 3551528.430000 -6.118999 0 109 145 0.000000
387949.861000 3551528.918999 3.049999 210 255 0 0.000000
387950.691000 3551528.970001 2.389999 184 255 0 0.000000
387951.459999 3551528.860001 0.541000 112 255 0 0.000000
387949.530001 3551528.278999 0.070000 94 255 0 0.000000
387950.750000 3551528.778999 2.650999 194 255 0 0.000000
387949.541000 3551528.000000 -0.159000 85 255 0 0.000000
387950.791000 3551528.558998 2.681000 195 255 0 0.000000
387949.600000 3551527.800003 0.100000 95 255 0 0.000000
387950.750000 3551528.220001 1.931000 166 255 0 0.000000
387949.551001 3551533.628998 1.920000 166 255 0 0.000000
387950.051001 3551533.730003 -2.209000 5 255 0 0.000000
387950.950001 3551533.878998 -3.540001 0 209 45 0.000000
387949.660999 3551533.410004 2.510000 189 255 0 0.000000
387950.621000 3551533.558998 3.100000 212 255 0 0.000000
387950.981001 3551533.610001 -3.809999 0 198 56 0.000000
387948.820000 3551533.058998 2.690001 196 255 0 0.000000
387949.920000 3551533.238998 4.361000 255 249 0 0.000000
387950.379999 3551533.290001 0.330999 104 255 0 0.000000
387951.041000 3551533.370003 -3.500000 0 210 44 0.000000
387952.111000 3551533.528999 -2.778999 0 239 15 0.000000
387950.691000 3551533.128998 3.100000 212 255 0 0.000000
387951.111000 3551533.128998 -3.139000 0 225 29 0.000000
387952.129999 3551533.278999 -3.209000 0 222 32 0.000000
387949.111000 3551532.680000 4.201000 255 255 0 0.000000
387949.971001 3551532.819000 4.190001 254 255 0 0.000000
387950.731001 3551532.910004 3.111000 212 255 0 0.000000
387951.070000 3551532.838997 -4.278999 0 180 74 0.000000
387952.181000 3551533.028999 -3.040001 0 228 26 0.000000
387948.111000 3551532.300003 3.250000 218 255 0 0.000000
387949.090000 3551532.459000 3.830999 240 255 0 0.000000
387949.990000 3551532.598999 4.049999 249 255 0 0.000000
387950.900999 3551532.750000 4.611000 255 239 0 0.000000
387951.111000 3551532.569000 -4.319000 0 179 75 0.000000
387952.209999 3551532.768997 -3.159000 0 224 30 0.000000
387950.070000 3551532.400002 4.471001 255 244 0 0.000000
387950.931000 3551532.528999 4.521000 255 242 0 0.000000
387951.471001 3551532.488998 0.100000 95 255 0 0.000000
387952.240000 3551532.500000 -3.520000 0 210 44 0.000000
387949.261000 3551532.069000 4.530001 255 242 0 0.000000
387950.070000 3551532.180000 4.181000 254 255 0 0.000000
387951.011000 3551532.348999 5.041000 255 222 0 0.000000
387951.621000 3551532.330002 1.709999 158 255 0 0.000000
387948.490000 3551531.760002 4.959999 255 225 0 0.000000
387949.320000 3551531.870003 4.750000 255 234 0 0.000000
387950.121000 3551531.980003 4.280001 255 252 0 0.000000
387951.660999 3551532.110001 1.791000 161 255 0 0.000000
387952.301001 3551531.970001 -4.059999 0 189 65 0.000000
387948.221001 3551531.418999 3.080999 211 255 0 0.000000
387948.900999 3551531.440002 1.440001 148 255 0 0.000000
387950.160999 3551531.768997 4.361000 255 249 0 0.000000
387952.570000 3551531.980003 0.940001 128 255 0 0.000000
387948.570000 3551531.360001 5.049999 255 222 0 0.000000
387949.431000 3551531.480003 5.041000 255 222 0 0.000000
387950.200001 3551531.569000 4.451000 255 245 0 0.000000
387950.990000 3551531.650002 3.750000 237 255 0 0.000000
387951.830999 3551531.738998 3.139999 213 255 0 0.000000
387952.660999 3551531.819000 2.209999 177 255 0 0.000000
387948.420000 3551531.050003 3.910000 243 255 0 0.000000
387949.490000 3551531.290001 5.271000 255 213 0 0.000000
387950.150999 3551530.730003 -5.959000 0 115 139 0.000000
387951.250000 3551530.900002 -5.969999 0 115 139 0.000000
387952.340000 3551531.058998 -5.969999 0 115 139 0.000000
387948.629999 3551530.940002 4.980000 255 225 0 0.000000
387950.410999 3551531.250000 5.721001 255 195 0 0.000000
387951.051001 3551531.209000 3.620001 232 255 0 0.000000
387951.900999 3551531.308998 3.150999 213 255 0 0.000000
387952.721001 3551531.348999 1.940001 167 255 0 0.000000
387948.551001 3551530.668999 4.341000 255 249 0 0.000000
387949.700001 3551530.980003 6.370001 255 170 0 0.000000
387950.090000 3551530.768997 2.541000 190 255 0 0.000000
387951.160999 3551531.069000 4.480000 255 244 0 0.000000
387951.931000 3551531.088997 3.111000 212 255 0 0.000000
387952.459999 3551530.588997 -5.139000 0 147 107 0.000000
387948.770000 3551530.569000 5.480000 255 205 0 0.000000
387949.280001 3551530.448997 2.951000 206 255 0 0.000000
387950.270000 3551530.668999 3.881001 242 255 0 0.000000
387951.261000 3551530.918999 5.230000 255 215 0 0.000000
387951.950001 3551530.838997 2.841000 201 255 0 0.000000
387952.809999 3551530.930000 2.280001 180 255 0 0.000000
387948.740000 3551530.330002 5.131001 255 219 0 0.000000
387949.570000 3551530.430000 4.931000 255 226 0 0.000000
387950.471001 3551530.598999 5.330999 255 210 0 0.000000
387951.291000 3551530.720001 5.250000 255 214 0 0.000000
387951.931000 3551530.550003 2.070000 171 255 0 0.000000
387952.761000 3551530.528999 0.280001 102 255 0 0.000000
387948.721001 3551530.080002 4.771000 255 232 0 0.000000
387949.600000 3551530.220001 4.881001 255 228 0 0.000000
387950.530001 3551530.418999 5.600000 255 200 0 0.000000
387951.320000 3551530.500000 5.181000 255 216 0 0.000000
387952.011000 3551530.389000 2.690001 196 255 0 0.000000
387952.879999 3551530.480003 2.250000 179 255 0 0.000000
387948.780001 3551529.900002 4.990999 255 224 0 0.000000
387949.590000 3551529.980003 4.611000 255 239 0 0.000000
387950.580999 3551530.238998 5.780001 255 193 0 0.000000
387951.340000 3551530.278999 5.000000 255 224 0 0.000000
387951.559999 3551529.348999 -5.209000 0 144 110 0.000000
387948.801001 3551529.680000 4.881001 255 228 0 0.000000
387949.721001 3551529.848999 5.299999 255 212 0 0.000000
387950.309999 3551529.709000 2.971001 207 255 0 0.000000
387950.981001 3551529.540001 0.320000 103 255 0 0.000000
387951.600000 3551529.080002 -5.240000 0 143 111 0.000000
387949.621000 3551529.518997 4.350000 255 249 0 0.000000
387950.320000 3551529.459000 2.750000 198 255 0 0.000000
387951.309999 3551529.730003 3.881001 242 255 0 0.000000
387951.629999 3551528.790001 -5.409000 0 136 118 0.000000
387950.511000 3551529.430000 4.221001 255 254 0 0.000000
387951.209999 3551529.319000 2.299999 180 255 0 0.000000
387951.629999 3551528.440002 -6.118999 0 109 145 0.000000
387951.200001 3551529.010002 1.709999 158 255 0 0.000000
387951.670000 3551528.160004 -6.130001 0 109 145 0.000000
387950.389999 3551528.760002 2.490999 188 255 0 0.000000
387951.270000 3551528.860001 2.209999 177 255 0 0.000000
387950.371000 3551528.459000 1.940001 167 255 0 0.000000
387951.320000 3551528.650002 2.320000 181 255 0 0.000000
387950.379999 3551528.190002 1.730000 159 255 0 0.000000
387951.340000 3551528.389000 2.139999 174 255 0 0.000000
387949.639999 3551533.750000 -1.889000 18 255 0 0.000000
387950.520000 3551533.900002 -3.360001 0 216 38 0.000000
387949.261000 3551533.430000 2.570000 191 255 0 0.000000
387950.270000 3551533.580002 3.639999 233 255 0 0.000000
387950.541000 3551533.639000 -3.610001 0 206 48 0.000000
387951.570000 3551533.800003 -3.650000 0 204 50 0.000000
387949.320000 3551533.209000 2.709999 197 255 0 0.000000
387950.250000 3551533.348999 3.049999 210 255 0 0.000000
387951.030001 3551533.470001 1.750000 160 255 0 0.000000
387951.639999 3551533.540001 -3.309999 0 218 36 0.000000
387949.389999 3551533.000000 2.990999 207 255 0 0.000000
387950.420000 3551533.168999 4.381001 255 248 0 0.000000
387950.990000 3551533.220001 0.791000 122 255 0 0.000000
387951.681000 3551533.290001 -3.229000 0 221 33 0.000000
387948.389999 3551532.598999 2.041000 171 255 0 0.000000
387949.611000 3551532.830002 4.459999 255 245 0 0.000000
387950.431000 3551532.948997 4.100000 251 255 0 0.000000
387951.030001 3551532.988998 0.820000 123 255 0 0.000000
387951.731001 3551533.028999 -3.150000 0 224 30 0.000000
387952.750000 3551533.190002 -3.080000 0 227 27 0.000000
387948.740000 3551532.480003 4.170000 253 255 0 0.000000
387949.471001 3551532.569000 3.070000 210 255 0 0.000000
387950.471001 3551532.738998 4.209999 255 255 0 0.000000
387951.121000 3551532.790001 1.541000 151 255 0 0.000000
387951.750000 3551532.778999 -3.490000 0 211 43 0.000000
387952.801001 3551532.948997 -2.868999 0 235 19 0.000000
387948.791000 3551532.268997 4.240999 255 253 0 0.000000
387949.511000 3551532.348999 3.111000 212 255 0 0.000000
387951.410999 3551532.690002 4.750000 255 234 0 0.000000
387951.791000 3551532.518997 -3.500000 0 210 44 0.000000
387952.830999 3551532.680000 -3.319000 0 217 37 0.000000
387948.850000 3551532.069000 4.420000 255 246 0 0.000000
387949.740000 3551532.209000 4.690001 255 236 0 0.000000
387950.650999 3551532.370003 5.330999 255 210 0 0.000000
387951.431000 3551532.470001 4.561001 255 240 0 0.000000
387952.070000 3551532.440002 0.721001 119 255 0 0.000000
387948.920000 3551531.870003 4.650999 255 237 0 0.000000
387948.459999 3551531.389000 -6.000000 0 113 141 0.000000
387950.660999 3551532.150002 5.041000 255 222 0 0.000000
387951.450001 3551532.238998 4.311001 255 250 0 0.000000
387952.200001 3551532.290001 2.591000 192 255 0 0.000000
387948.459999 3551531.440002 1.320000 142 255 0 0.000000
387949.959999 3551531.870003 5.920000 255 188 0 0.000000
387950.691000 3551531.940002 5.041000 255 222 0 0.000000
387951.431000 3551531.988998 3.631001 232 255 0 0.000000
387952.150999 3551531.980003 0.850000 124 255 0 0.000000
387948.871000 3551531.400002 3.850000 241 255 0 0.000000
387950.011000 3551531.680000 6.080999 255 181 0 0.000000
387950.780001 3551531.768997 5.600000 255 200 0 0.000000
387951.490000 3551531.800003 3.940001 244 255 0 0.000000
387952.200001 3551531.760002 1.049999 132 255 0 0.000000
387948.000000 3551531.058998 3.780001 238 255 0 0.000000
387948.410999 3551530.918999 0.420000 108 255 0 0.000000
387950.840000 3551531.588997 5.850000 255 190 0 0.000000
387951.200001 3551531.300003 -0.330000 79 255 0 0.000000
387952.330999 3551531.660004 3.010000 208 255 0 0.000000
387948.041000 3551530.838997 3.791000 239 255 0 0.000000
387948.520000 3551530.730003 0.951000 128 255 0 0.000000
387950.090000 3551531.290001 6.240999 255 175 0 0.000000
387950.750000 3551531.290001 4.570000 255 240 0 0.000000
387951.490000 3551531.308998 3.021000 209 255 0 0.000000
387952.389999 3551531.470001 3.521000 228 255 0 0.000000
387953.000000 3551530.970001 -6.060001 0 111 143 0.000000
387947.950001 3551530.558998 3.070000 210 255 0 0.000000
387949.261000 3551530.940002 5.900999 255 189 0 0.000000
387950.150999 3551531.110001 6.459999 255 167 0 0.000000
387950.840000 3551531.128998 5.190001 255 216 0 0.000000
387950.861000 3551530.360001 -6.118999 0 109 145 0.000000
387952.431000 3551531.260002 3.530001 228 255 0 0.000000
387948.129999 3551530.418999 3.971001 246 255 0 0.000000
387949.221001 3551530.690002 5.410000 255 207 0 0.000000
387950.121000 3551530.860001 5.959999 255 186 0 0.000000
387950.941000 3551530.988998 5.951000 255 186 0 0.000000
387951.551001 3551530.848999 2.881001 203 255 0 0.000000
387952.400999 3551530.930000 2.230000 178 255 0 0.000000
387953.129999 3551530.528999 -4.669001 0 165 89 0.000000
387949.200001 3551530.440002 5.000000 255 224 0 0.000000
387950.160999 3551530.668999 6.010000 255 184 0 0.000000
387950.981001 3551530.790001 5.951000 255 186 0 0.000000
387951.371000 3551530.360001 -0.129999 86 255 0 0.000000
387952.431000 3551530.698997 2.091000 172 255 0 0.000000
387949.231001 3551530.250000 5.070000 255 221 0 0.000000
387950.170000 3551530.448997 5.799999 255 192 0 0.000000
387950.971001 3551530.558998 5.600000 255 200 0 0.000000
387951.600000 3551530.400002 2.650999 194 255 0 0.000000
387952.459999 3551530.470001 1.980000 169 255 0 0.000000
387948.090000 3551529.690002 3.120001 213 255 0 0.000000
387948.761000 3551529.620003 1.420000 147 255 0 0.000000
387949.850000 3551529.918999 2.791000 200 255 0 0.000000
387951.011000 3551530.348999 5.639999 255 198 0 0.000000
387951.420000 3551529.838997 -0.590000 68 255 0 0.000000
387952.459999 3551530.160004 1.181000 137 255 0 0.000000
387947.971001 3551529.360001 2.209999 177 255 0 0.000000
387948.871000 3551529.459000 1.951000 167 255 0 0.000000
387950.111000 3551529.918999 4.760000 255 233 0 0.000000
387950.900999 3551529.980003 4.120001 252 255 0 0.000000
387951.639999 3551529.889000 2.111000 173 255 0 0.000000
387952.500000 3551529.918999 1.100000 134 255 0 0.000000
387948.809999 3551529.150002 1.291000 142 255 0 0.000000
387950.150999 3551529.709000 4.791000 255 231 0 0.000000
387951.030001 3551529.878998 5.139999 255 218 0 0.000000
387951.660999 3551529.650002 1.990999 169 255 0 0.000000
387952.261000 3551529.000000 -5.129999 0 148 106 0.000000
387948.861000 3551528.930000 1.361000 144 255 0 0.000000
387950.121000 3551529.430000 4.260000 255 252 0 0.000000
387951.080999 3551529.698997 5.350000 255 210 0 0.000000
387951.709999 3551529.440002 2.100000 173 255 0 0.000000
387949.990000 3551529.028999 2.771000 199 255 0 0.000000
387950.850000 3551529.120003 2.420000 186 255 0 0.000000
387949.950001 3551528.720001 2.160000 175 255 0 0.000000
387950.879999 3551528.889000 2.381001 183 255 0 0.000000
387951.250000 3551527.910004 -6.139000 0 108 146 0.000000
387949.840000 3551528.300003 0.830999 124 255 0 0.000000
387950.941000 3551528.690002 2.611000 192 255 0 0.000000
387949.871000 3551528.050003 0.771000 121 255 0 0.000000
387950.920000 3551528.378998 2.021000 170 255 0 0.000000
387950.950001 3551528.150002 1.980000 169 255 0 0.000000
387949.830999 3551533.800003 2.240999 178 255 0 0.000000
387950.301001 3551533.930000 -2.750000 0 240 14 0.000000
387949.000000 3551533.448997 2.530001 189 255 0 0.000000
387950.011000 3551533.598999 3.580999 231 255 0 0.000000
387950.850000 3551533.730003 3.100000 212 255 0 0.000000
387951.280001 3551533.830002 -3.830000 0 198 56 0.000000
387950.051001 3551533.389000 3.600000 231 255 0 0.000000
387950.889999 3551533.518997 3.190001 215 255 0 0.000000
387951.340000 3551533.580002 -3.520000 0 210 44 0.000000
387949.030001 3551533.000000 2.250000 179 255 0 0.000000
387950.209999 3551533.190002 4.740999 255 234 0 0.000000
387950.801001 3551533.260002 1.690001 157 255 0 0.000000
387951.410999 3551533.319000 -3.110001 0 225 29 0.000000
387949.240000 3551532.819000 3.549999 229 255 0 0.000000
387950.209999 3551532.980003 4.440001 255 246 0 0.000000
387950.920000 3551533.069000 2.701000 196 255 0 0.000000
387951.441000 3551533.069000 -3.330000 0 217 37 0.000000
387952.481001 3551533.230003 -3.040001 0 228 26 0.000000
387948.511000 3551532.500000 4.291000 255 251 0 0.000000
387949.400999 3551532.639000 4.549999 255 241 0 0.000000
387950.170000 3551532.738998 3.701000 235 255 0 0.000000
387951.090000 3551532.889000 4.271000 255 252 0 0.000000
387951.471001 3551532.800003 -3.549000 0 209 45 0.000000
387952.520000 3551532.970001 -2.938999 0 232 22 0.000000
387949.400999 3551532.418999 4.291000 255 251 0 0.000000
387950.270000 3551532.558998 4.341000 255 249 0 0.000000
387951.139999 3551532.690002 4.521000 255 242 0 0.000000
387951.511000 3551532.550003 -3.549000 0 209 45 0.000000
387952.551001 3551532.709000 -3.330000 0 217 37 0.000000
387948.580999 3551532.088997 4.320000 255 250 0 0.000000
387949.459999 3551532.220001 4.440001 255 246 0 0.000000
387950.301001 3551532.338997 4.260000 255 252 0 0.000000
387951.181000 3551532.488998 4.591000 255 240 0 0.000000
387951.791000 3551532.459000 0.580999 114 255 0 0.000000
387952.590000 3551532.459000 -3.270000 0 219 35 0.000000
387948.740000 3551531.918999 5.131001 255 219 0 0.000000
387949.500000 3551532.018997 4.500000 255 243 0 0.000000
387950.379999 3551532.160004 4.760000 255 233 0 0.000000
387951.221001 3551532.278999 4.639999 255 237 0 0.000000
387951.950001 3551532.319000 2.591000 192 255 0 0.000000
387952.611000 3551532.180000 -3.938999 0 193 61 0.000000
387948.240000 3551531.488998 1.561001 152 255 0 0.000000
387949.270000 3551531.680000 2.381001 183 255 0 0.000000
387950.441000 3551531.970001 5.030001 255 222 0 0.000000
387951.181000 3551532.028999 3.730000 237 255 0 0.000000
387951.879999 3551532.010002 0.791000 122 255 0 0.000000
387948.761000 3551531.488998 4.850000 255 229 0 0.000000
387950.481001 3551531.760002 5.021000 255 223 0 0.000000
387951.231001 3551531.808998 3.850000 241 255 0 0.000000
387952.011000 3551531.860001 2.361000 183 255 0 0.000000
387948.791000 3551531.278999 4.799999 255 231 0 0.000000
387949.830999 3551531.518997 6.330999 255 171 0 0.000000
387950.520000 3551531.558998 5.181000 255 216 0 0.000000
387950.511000 3551530.959000 -5.938999 0 115 139 0.000000
387951.590000 3551531.120003 -5.950001 0 115 139 0.000000
387948.910999 3551531.120003 5.431000 255 207 0 0.000000
387949.750000 3551531.250000 5.440001 255 207 0 0.000000
387950.580999 3551531.378998 5.440001 255 207 0 0.000000
387951.221001 3551531.319000 2.850000 202 255 0 0.000000
387952.129999 3551531.488998 3.350000 222 255 0 0.000000
387952.721001 3551531.018997 -5.938999 0 115 139 0.000000
387948.981001 3551530.940002 5.670000 255 198 0 0.000000
387950.639999 3551531.190002 5.639999 255 198 0 0.000000
387951.371000 3551531.220001 4.381001 255 248 0 0.000000
387952.059999 3551531.120003 1.271000 141 255 0 0.000000
387948.941000 3551530.680000 5.150999 255 218 0 0.000000
387950.700001 3551531.010002 6.000000 255 185 0 0.000000
387951.441000 3551531.040001 4.811001 255 231 0 0.000000
387952.150999 3551530.959000 2.250000 179 255 0 0.000000
387952.850000 3551530.569000 -4.729000 0 163 91 0.000000
387948.950001 3551530.459000 5.000000 255 224 0 0.000000
387950.709999 3551530.790001 5.730000 255 195 0 0.000000
387952.111000 3551530.620003 0.799999 122 255 0 0.000000
387948.840000 3551530.150002 4.021000 248 255 0 0.000000
387949.900999 3551530.448997 5.620001 255 199 0 0.000000
387950.700001 3551530.540001 5.280001 255 213 0 0.000000
387951.340000 3551530.400002 2.490999 188 255 0 0.000000
387952.250000 3551530.569000 2.881001 203 255 0 0.000000
387953.070000 3551530.488998 0.440001 109 255 0 0.000000
387948.971001 3551530.018997 4.701000 255 235 0 0.000000
387949.861000 3551530.168999 4.971001 255 225 0 0.000000
387950.780001 3551530.389000 5.820000 255 192 0 0.000000
387951.410999 3551530.230003 2.980000 207 255 0 0.000000
387952.209999 3551530.198997 1.330999 143 255 0 0.000000
387948.990000 3551529.800003 4.639999 255 237 0 0.000000
387949.621000 3551529.709000 2.681000 195 255 0 0.000000
387950.740000 3551530.110001 5.061001 255 221 0 0.000000
387951.400999 3551529.959000 2.459999 187 255 0 0.000000
387952.240000 3551529.959000 1.170000 137 255 0 0.000000
387949.850000 3551529.690002 4.400999 255 247 0 0.000000
387950.801001 3551529.930000 5.389999 255 208 0 0.000000
387951.431000 3551529.720001 2.311001 181 255 0 0.000000
387952.160999 3551529.448997 -1.419001 36 255 0 0.000000
387949.910999 3551529.488998 4.591000 255 240 0 0.000000
387950.740000 3551529.598999 4.370001 255 248 0 0.000000
387951.441000 3551529.440002 1.900999 166 255 0 0.000000
387951.981001 3551528.650002 -6.150002 0 108 146 0.000000
387949.941000 3551529.290001 4.620001 255 238 0 0.000000
387950.600000 3551529.150002 2.451000 186 255 0 0.000000
387951.420000 3551529.128998 1.209999 139 255 0 0.000000
387952.020000 3551528.389000 -6.139000 0 108 146 0.000000
387949.990000 3551529.088997 4.721001 255 234 0 0.000000
387950.639999 3551528.918999 2.451000 186 255 0 0.000000
387950.971001 3551527.940002 -6.159000 0 107 147 0.000000
387949.490000 3551528.209000 0.000000 91 255 0 0.000000
387950.639999 3551528.650002 2.111000 173 255 0 0.000000
387949.500000 3551527.948997 -0.159000 85 255 0 0.000000
387950.629999 3551528.360001 1.670000 157 255 0 0.000000
387950.681000 3551528.150002 1.799999 161 255 0 0.000000
387951.639999 3551528.360001 2.330999 182 255 0 0.000000
387950.681000 3551527.848999 1.361000 144 255 0 0.000000
387949.621000 3551533.760002 1.910000 166 255 0 0.000000
387950.129999 3551533.878998 -2.770000 0 239 15 0.000000
387951.080999 3551534.028999 -3.669001 0 204 50 0.000000
387950.441000 3551533.650002 0.361000 106 255 0 0.000000
387951.129999 3551533.768997 -3.639000 0 205 49 0.000000
387948.871000 3551533.180000 2.570000 191 255 0 0.000000
387950.490000 3551533.418999 0.400999 107 255 0 0.000000
387951.160999 3551533.518997 -3.709000 0 202 52 0.000000
387950.731001 3551533.238998 2.820000 201 255 0 0.000000
387951.240000 3551533.268997 -3.209000 0 222 32 0.000000
387952.261000 3551533.430000 -3.080000 0 227 27 0.000000
387949.959999 3551532.910004 3.670000 234 255 0 0.000000
387950.801001 3551533.028999 3.150999 213 255 0 0.000000
387951.111000 3551532.948997 -5.969999 0 115 139 0.000000
387952.309999 3551533.180000 -2.889000 0 234 20 0.000000
387948.231001 3551532.418999 3.521000 228 255 0 0.000000
387949.209999 3551532.588997 4.330999 255 249 0 0.000000
387950.041000 3551532.709000 4.061001 249 255 0 0.000000
387950.931000 3551532.848999 4.341000 255 249 0 0.000000
387951.160999 3551532.680000 -5.950001 0 115 139 0.000000
