387954.694000 3551524.830002 1.226999 139 255 0 0.000000
387955.552999 3551524.489998 3.455000 225 255 0 0.000000
387952.580999 3551522.959000 7.915001 255 110 0 0.000000
387953.580000 3551523.810997 4.289000 255 251 0 0.000000
387954.531000 3551523.874001 4.615999 255 239 0 0.000000
387955.586000 3551524.248001 3.438000 225 255 0 0.000000
387952.608000 3551522.689003 8.190001 255 100 0 0.000000
387953.524000 3551523.075996 6.813999 255 153 0 0.000000
387954.517000 3551523.485001 5.372000 255 209 0 0.000000
387955.594999 3551523.946999 3.709000 235 255 0 0.000000
387952.639000 3551522.470001 8.180000 255 100 0 0.000000
387953.530001 3551522.711998 7.514000 255 126 0 0.000000
387954.528000 3551523.177002 5.725000 255 195 0 0.000000
387955.580000 3551523.585999 4.271999 255 252 0 0.000000
387951.722000 3551523.695000 -0.568001 69 255 0 0.000000
387952.676001 3551522.322998 7.770000 255 116 0 0.000000
387953.556000 3551522.460999 7.653999 255 121 0 0.000000
387954.686001 3551523.332001 3.643000 233 255 0 0.000000
387955.625000 3551523.374001 4.106001 251 255 0 0.000000
387951.761000 3551523.435997 -0.615999 68 255 0 0.000000
387953.608000 3551522.345001 7.072001 255 143 0 0.000000
387954.705999 3551523.051003 3.841999 240 255 0 0.000000
387951.858000 3551521.964996 6.580999 255 163 0 0.000000
387952.736000 3551521.850998 7.950001 255 109 0 0.000000
387953.955999 3551523.530998 -1.104000 48 255 0 0.000000
387951.891001 3551521.726997 6.653000 255 160 0 0.000000
387952.767000 3551521.635002 7.936001 255 109 0 0.000000
387953.639000 3551521.764999 7.848000 255 113 0 0.000000
387951.922001 3551521.538002 6.426001 255 169 0 0.000000
387952.801001 3551521.454002 7.715000 255 118 0 0.000000
387951.940001 3551521.718002 3.681999 234 255 0 0.000000
387951.988001 3551521.050003 6.659000 255 159 0 0.000000
387953.106001 3551524.261002 8.125999 255 102 0 0.000000
387954.385000 3551526.140999 0.745001 121 255 0 0.000000
387953.141001 3551524.073997 7.965000 255 109 0 0.000000
387954.399000 3551525.779999 1.134001 136 255 0 0.000000
387953.183001 3551523.931999 7.604000 255 122 0 0.000000
387954.393999 3551525.353996 1.854000 163 255 0 0.000000
387955.400999 3551525.430000 2.115000 174 255 0 0.000000
387952.329000 3551523.584000 7.631001 255 121 0 0.000000
387953.195000 3551523.578003 8.195999 255 100 0 0.000000
387954.134001 3551523.932999 7.118000 255 142 0 0.000000
387952.360001 3551523.335999 7.747999 255 117 0 0.000000
387953.228001 3551523.382004 8.084999 255 103 0 0.000000
387954.367001 3551524.477997 3.521000 228 255 0 0.000000
387952.389000 3551523.098000 7.825001 255 114 0 0.000000
387954.340000 3551524.014000 4.559999 255 240 0 0.000000
387955.392000 3551524.383003 3.419001 224 255 0 0.000000
387953.483000 3551524.066002 2.424999 186 255 0 0.000000
387954.337000 3551523.648003 5.153000 255 218 0 0.000000
387955.424000 3551524.128998 3.419001 224 255 0 0.000000
387952.452000 3551522.646004 7.844000 255 113 0 0.000000
387953.334999 3551522.807999 7.607000 255 122 0 0.000000
387954.336000 3551523.295998 5.726000 255 195 0 0.000000
387955.372999 3551523.679001 4.427000 255 246 0 0.000000
387952.478001 3551522.349998 8.261000 255 97 0 0.000000
387953.372000 3551522.625000 7.403999 255 130 0 0.000000
387954.327999 3551522.942001 6.363001 255 171 0 0.000000
387955.420000 3551523.473000 4.240999 255 253 0 0.000000
387952.514000 3551522.217003 7.791000 255 115 0 0.000000
387953.421000 3551522.490997 6.920000 255 149 0 0.000000
387954.521999 3551523.210999 3.667999 234 255 0 0.000000
387955.461000 3551523.255997 4.111000 251 255 0 0.000000
387951.665001 3551522.061996 6.733000 255 157 0 0.000000
387952.548000 3551522.023003 7.643000 255 121 0 0.000000
387953.462999 3551522.319000 6.614000 255 161 0 0.000000
387954.421000 3551522.581001 5.820999 255 192 0 0.000000
387955.506001 3551523.042999 3.951000 245 255 0 0.000000
387952.575001 3551521.764000 7.862000 255 112 0 0.000000
387953.510000 3551522.160004 6.200001 255 177 0 0.000000
387951.728001 3551521.647003 6.480000 255 166 0 0.000000
387952.606001 3551521.536003 7.900000 255 111 0 0.000000
387953.538000 3551521.916000 6.281000 255 174 0 0.000000
387951.760000 3551521.427002 6.464001 255 167 0 0.000000
387952.642000 3551521.383003 7.510000 255 126 0 0.000000
387951.777000 3551521.601997 3.730000 236 255 0 0.000000
387951.816999 3551521.219002 4.712999 255 234 0 0.000000
387953.004999 3551520.589996 1.017000 131 255 0 0.000000
387952.959999 3551524.200996 7.882999 255 112 0 0.000000
387954.225000 3551525.975998 0.837000 124 255 0 0.000000
387955.257999 3551526.053001 1.104000 134 255 0 0.000000
387952.112000 3551523.915001 7.636000 255 121 0 0.000000
387953.000000 3551524.060997 7.513000 255 126 0 0.000000
387954.239000 3551525.620003 1.228001 139 255 0 0.000000
387952.143999 3551523.694000 7.624001 255 121 0 0.000000
387953.023001 3551523.775002 7.791000 255 115 0 0.000000
387954.247000 3551525.249001 1.711000 158 255 0 0.000000
387955.252001 3551525.317001 2.017000 170 255 0 0.000000
387952.176001 3551523.496002 7.497999 255 127 0 0.000000
387953.044001 3551523.494003 8.059999 255 105 0 0.000000
387953.975000 3551523.803001 7.174000 255 139 0 0.000000
387955.478001 3551525.595001 -0.415001 75 255 0 0.000000
387952.207001 3551523.264000 7.527000 255 125 0 0.000000
387953.075001 3551523.276001 8.032000 255 106 0 0.000000
387954.023001 3551523.639999 6.855000 255 151 0 0.000000
387955.656000 3551525.697998 -2.191999 6 255 0 0.000000
387952.263000 3551523.494003 5.229000 255 215 0 0.000000
387953.120001 3551523.139999 7.598000 255 123 0 0.000000
387954.205000 3551523.953003 4.211000 255 255 0 0.000000
387955.337999 3551524.505997 2.170000 175 255 0 0.000000
387952.294001 3551523.237999 5.336000 255 210 0 0.000000
387953.125000 3551522.777000 8.313999 255 95 0 0.000000
387954.035000 3551523.021004 7.672001 255 120 0 0.000000
387955.353001 3551524.209000 2.379000 183 255 0 0.000000
387953.169001 3551522.633003 7.927000 255 110 0 0.000000
387954.134001 3551523.025002 6.499001 255 166 0 0.000000
387955.256001 3551523.646004 3.950001 245 255 0 0.000000
387952.327999 3551522.305000 7.895000 255 111 0 0.000000
387953.235001 3551522.599998 6.917999 255 149 0 0.000000
387954.171000 3551522.820000 6.379999 255 170 0 0.000000
387955.287001 3551523.402000 3.958000 245 255 0 0.000000
387952.361000 3551522.110001 7.757000 255 116 0 0.000000
387953.274000 3551522.413002 6.708000 255 157 0 0.000000
387954.337999 3551523.002998 4.114000 251 255 0 0.000000
387955.313000 3551523.148003 4.014999 247 255 0 0.000000
387951.507999 3551521.984001 6.496000 255 166 0 0.000000
387952.393999 3551521.920998 7.566000 255 124 0 0.000000
387953.291000 3551522.115997 7.093000 255 142 0 0.000000
387955.451000 3551523.124001 2.766001 198 255 0 0.000000
387953.339001 3551521.969002 6.621000 255 160 0 0.000000
387955.393999 3551522.693001 3.805000 239 255 0 0.000000
387952.455999 3551521.468002 7.625999 255 121 0 0.000000
387953.385000 3551521.805000 6.239000 255 175 0 0.000000
387951.587999 3551521.721001 3.690001 234 255 0 0.000000
387952.497000 3551521.343002 7.007000 255 145 0 0.000000
387951.622999 3551521.471001 3.749001 237 255 0 0.000000
387952.535000 3551521.181000 6.594999 255 162 0 0.000000
387951.656000 3551521.257004 3.552999 229 255 0 0.000000
387952.857000 3551524.421997 6.160000 255 178 0 0.000000
387953.990999 3551525.428001 2.336000 182 255 0 0.000000
387955.120001 3551525.902000 0.885000 126 255 0 0.000000
387951.959999 3551523.730003 7.705000 255 118 0 0.000000
387952.840000 3551523.831001 7.774000 255 116 0 0.000000
387954.025999 3551525.176003 2.306000 181 255 0 0.000000
387955.059999 3551525.359001 2.094000 173 255 0 0.000000
387952.017000 3551524.197998 4.430000 255 246 0 0.000000
387952.860001 3551523.533997 8.111000 255 103 0 0.000000
387953.806000 3551523.908997 6.929001 255 148 0 0.000000
387955.098000 3551525.116997 2.011000 169 255 0 0.000000
387952.025000 3551523.321999 7.510000 255 126 0 0.000000
387952.900999 3551523.389000 7.750000 255 117 0 0.000000
387953.820999 3551523.624001 7.194000 255 139 0 0.000000
387955.174999 3551524.977997 1.465000 148 255 0 0.000000
387952.056000 3551523.101997 7.493999 255 127 0 0.000000
387952.936001 3551523.195999 7.605000 255 122 0 0.000000
387953.846001 3551523.386002 7.256001 255 136 0 0.000000
387955.204000 3551524.708000 1.507999 150 255 0 0.000000
387952.122000 3551523.535004 4.118999 252 255 0 0.000000
387952.950001 3551522.877998 8.091000 255 103 0 0.000000
387953.857000 3551523.092003 7.603001 255 122 0 0.000000
387955.187000 3551524.323997 2.121000 174 255 0 0.000000
387952.158001 3551523.334000 3.895000 243 255 0 0.000000
387952.976999 3551522.641998 8.177999 255 100 0 0.000000
387953.962000 3551523.125999 6.287001 255 174 0 0.000000
387955.129000 3551523.848000 3.240000 217 255 0 0.000000
387952.146000 3551522.379997 7.795000 255 115 0 0.000000
387953.021999 3551522.505997 7.737000 255 117 0 0.000000
387953.914000 3551522.644997 7.618000 255 122 0 0.000000
387955.091999 3551523.444000 4.056000 249 255 0 0.000000
387952.177000 3551522.155998 7.798000 255 115 0 0.000000
387953.077000 3551522.399002 7.080999 255 143 0 0.000000
387953.938000 3551522.403000 7.707001 255 118 0 0.000000
387955.212000 3551523.391998 2.997999 207 255 0 0.000000
387952.219999 3551522.080002 6.943001 255 148 0 0.000000
387953.105000 3551522.163002 7.142000 255 140 0 0.000000
387953.938000 3551522.092003 8.205999 255 99 0 0.000000
387952.256001 3551521.919998 6.576000 255 163 0 0.000000
387953.142000 3551521.976997 6.943001 255 148 0 0.000000
387952.271000 3551521.525002 7.645000 255 121 0 0.000000
387953.152000 3551521.663002 7.492001 255 127 0 0.000000
387951.402000 3551521.764000 3.805000 239 255 0 0.000000
387952.302999 3551521.310997 7.591000 255 123 0 0.000000
387953.205000 3551521.529999 6.916000 255 149 0 0.000000
387951.437000 3551521.529999 3.757999 237 255 0 0.000000
387951.469999 3551521.301003 3.680000 234 255 0 0.000000
387952.399000 3551521.149002 5.646000 255 198 0 0.000000
387954.936001 3551526.000999 1.444000 148 255 0 0.000000
387952.698000 3551524.055000 7.650000 255 121 0 0.000000
387953.872000 3551525.351997 2.513000 189 255 0 0.000000
387954.903000 3551525.541000 2.281000 180 255 0 0.000000
387952.732000 3551523.855003 7.541000 255 125 0 0.000000
387953.909000 3551525.111000 2.452000 186 255 0 0.000000
387954.945000 3551525.309998 2.167999 175 255 0 0.000000
387951.905001 3551524.180000 4.386000 255 247 0 0.000000
387952.746000 3551523.514999 8.082001 255 104 0 0.000000
387953.688999 3551523.872002 6.976000 255 147 0 0.000000
387955.186001 3551525.628998 -0.447001 74 255 0 0.000000
387951.909000 3551523.286003 7.559000 255 124 0 0.000000
387952.773001 3551523.288002 8.117001 255 103 0 0.000000
387953.708000 3551523.608002 7.153999 255 140 0 0.000000
387955.061001 3551524.935997 1.514999 150 255 0 0.000000
387951.940001 3551523.057999 7.587999 255 123 0 0.000000
387952.808001 3551523.095001 7.983000 255 108 0 0.000000
387953.724001 3551523.332001 7.393999 255 130 0 0.000000
387955.098000 3551524.684998 1.476000 148 255 0 0.000000
387952.011999 3551523.531998 3.985001 246 255 0 0.000000
387952.834999 3551522.855003 8.084000 255 103 0 0.000000
387953.737000 3551523.054001 7.667999 255 120 0 0.000000
387955.295000 3551524.831001 -0.524000 71 255 0 0.000000
387952.048000 3551523.314003 3.833000 240 255 0 0.000000
387952.875999 3551522.688004 7.792000 255 115 0 0.000000
387955.025000 3551523.832001 3.152000 213 255 0 0.000000
387952.083000 3551523.068001 3.830999 240 255 0 0.000000
387952.909000 3551522.486000 7.676001 255 120 0 0.000000
387953.795000 3551522.598999 7.695000 255 119 0 0.000000
387955.014000 3551523.484001 3.664000 234 255 0 0.000000
387952.079000 3551522.348999 6.541000 255 164 0 0.000000
387952.965000 3551522.388000 6.992001 255 146 0 0.000000
387953.931000 3551522.698997 5.934999 255 187 0 0.000000
387955.055000 3551523.260002 3.552999 229 255 0 0.000000
387952.104000 3551522.044998 7.000999 255 146 0 0.000000
387952.996000 3551522.166000 6.980000 255 147 0 0.000000
387953.856001 3551522.168999 7.635000 255 121 0 0.000000
387952.143000 3551521.903000 6.507000 255 165 0 0.000000
387953.007000 3551521.858002 7.487000 255 127 0 0.000000
387953.882000 3551521.936996 7.705999 255 118 0 0.000000
387952.157000 3551521.495003 7.639000 255 121 0 0.000000
387953.032000 3551521.610001 7.631001 255 121 0 0.000000
387951.291000 3551521.742996 3.718000 236 255 0 0.000000
387952.188000 3551521.271004 7.653999 255 121 0 0.000000
387953.089001 3551521.490997 6.968000 255 147 0 0.000000
387951.334999 3551521.262001 5.422001 255 207 0 0.000000
387952.226000 3551521.121002 7.212000 255 138 0 0.000000
387952.287001 3551521.125999 5.603001 255 200 0 0.000000
387954.750000 3551526.205002 1.271999 141 255 0 0.000000
387953.386999 3551524.260002 7.875999 255 112 0 0.000000
387952.537001 3551523.987999 7.570000 255 124 0 0.000000
387953.708000 3551525.260002 2.489000 188 255 0 0.000000
387954.738001 3551525.445000 2.271000 180 255 0 0.000000
387952.568001 3551523.777000 7.523001 255 126 0 0.000000
387953.636000 3551524.585999 4.400000 255 247 0 0.000000
387954.778000 3551525.213997 2.166000 175 255 0 0.000000
387951.750000 3551524.283997 3.441999 225 255 0 0.000000
387952.570999 3551523.361000 8.409000 255 91 0 0.000000
387953.514000 3551523.745003 7.160000 255 139 0 0.000000
387954.857000 3551525.078003 1.586000 153 255 0 0.000000
387951.783001 3551523.990997 3.645000 233 255 0 0.000000
387952.601000 3551523.140999 8.407000 255 91 0 0.000000
387953.549000 3551523.536003 7.066000 255 143 0 0.000000
387955.049999 3551525.236000 -0.398001 76 255 0 0.000000
387955.733000 3551524.556000 3.433001 225 255 0 0.000000
387951.816999 3551523.723999 3.754000 237 255 0 0.000000
387952.643999 3551523.002998 8.003000 255 107 0 0.000000
387953.566000 3551523.263000 7.297001 255 134 0 0.000000
387955.098000 3551525.002998 -0.576000 69 255 0 0.000000
387955.768999 3551524.318001 3.385000 223 255 0 0.000000
387951.849001 3551523.441002 3.958000 245 255 0 0.000000
387952.681000 3551522.820999 7.809000 255 115 0 0.000000
387953.639999 3551523.193001 6.517000 255 165 0 0.000000
387954.650999 3551523.555000 5.306999 255 212 0 0.000000
387955.760000 3551523.995003 3.750999 237 255 0 0.000000
387951.941999 3551524.122002 -1.041000 51 255 0 0.000000
387952.778999 3551522.966003 5.868000 255 189 0 0.000000
387953.643000 3551522.878998 6.966999 255 147 0 0.000000
387954.653999 3551523.257004 5.622999 255 199 0 0.000000
387955.787001 3551523.746002 3.771000 238 255 0 0.000000
387951.920000 3551522.988998 3.749001 237 255 0 0.000000
387952.752001 3551522.430000 7.517000 255 126 0 0.000000
387953.627001 3551522.504997 7.742001 255 117 0 0.000000
387954.851000 3551523.392998 3.634001 233 255 0 0.000000
387951.915001 3551522.259003 6.566000 255 163 0 0.000000
387952.764999 3551522.127998 7.985001 255 108 0 0.000000
387953.665001 3551522.310997 7.604000 255 122 0 0.000000
387954.874001 3551523.133003 3.729000 236 255 0 0.000000
387951.950001 3551522.070999 6.337000 255 171 0 0.000000
387952.811001 3551521.986000 7.532000 255 125 0 0.000000
387953.853001 3551522.540001 5.006001 255 223 0 0.000000
387951.979000 3551521.810997 6.518999 255 165 0 0.000000
387952.827000 3551521.703003 7.893000 255 111 0 0.000000
387953.719999 3551521.858002 7.656000 255 121 0 0.000000
387952.000999 3551521.495003 7.125999 255 141 0 0.000000
387952.877001 3551521.573997 7.358000 255 132 0 0.000000
387952.048000 3551521.413002 6.186001 255 177 0 0.000000
387952.924000 3551521.413002 6.959999 255 148 0 0.000000
387952.124001 3551521.538002 3.721001 236 255 0 0.000000
387953.202999 3551524.320999 7.962000 255 109 0 0.000000
387954.615999 3551526.074997 1.077999 133 255 0 0.000000
387953.221001 3551524.052002 8.164000 255 100 0 0.000000
387954.566000 3551525.561996 2.152000 175 255 0 0.000000
387952.440001 3551524.203003 5.920000 255 188 0 0.000000
387953.275000 3551523.927002 7.714001 255 118 0 0.000000
387954.608999 3551525.331001 2.009001 169 255 0 0.000000
387952.434999 3551523.720001 7.073000 255 143 0 0.000000
387954.238001 3551523.948997 7.117001 255 142 0 0.000000
387952.431000 3551523.268997 8.156000 255 101 0 0.000000
387953.309000 3551523.386002 8.150999 255 101 0 0.000000
387954.538000 3551524.448997 3.716999 236 255 0 0.000000
387955.566000 3551524.667000 3.306000 219 255 0 0.000000
387952.476999 3551523.150002 7.655001 255 121 0 0.000000
387953.403999 3551523.402000 6.996000 255 146 0 0.000000
387954.503000 3551524.032997 4.533001 255 242 0 0.000000
387955.580999 3551524.387001 3.448999 225 255 0 0.000000
387952.542999 3551523.138000 6.587000 255 162 0 0.000000
387953.577999 3551523.674004 4.490000 255 243 0 0.000000
387954.525000 3551523.769997 4.636000 255 237 0 0.000000
387955.598000 3551524.115997 3.565001 230 255 0 0.000000
387952.518999 3551522.611000 8.159000 255 101 0 0.000000
387953.459999 3551522.942001 7.038000 255 145 0 0.000000
387954.476999 3551523.342003 5.594999 255 201 0 0.000000
387955.606001 3551523.825996 3.783001 238 255 0 0.000000
387951.789000 3551523.866997 -0.620001 68 255 0 0.000000
387952.542999 3551522.367996 8.299000 255 95 0 0.000000
387953.458000 3551522.616997 7.570000 255 124 0 0.000000
387954.493000 3551523.077003 5.761000 255 194 0 0.000000
387955.573000 3551523.468002 4.365000 255 249 0 0.000000
387951.827000 3551523.583000 -0.552000 70 255 0 0.000000
387952.577000 3551522.166000 8.195999 255 100 0 0.000000
387953.500000 3551522.431999 7.347000 255 133 0 0.000000
387954.702000 3551523.235001 3.615999 232 255 0 0.000000
387955.622000 3551523.253998 4.191999 254 255 0 0.000000
387951.763000 3551522.067001 6.809000 255 154 0 0.000000
387952.615999 3551521.988998 7.945000 255 109 0 0.000000
387954.007999 3551523.581001 -0.500999 72 255 0 0.000000
387954.690001 3551522.896004 4.131001 252 255 0 0.000000
387951.797001 3551521.875999 6.607000 255 161 0 0.000000
387952.639000 3551521.738998 8.136000 255 102 0 0.000000
387953.898001 3551522.915001 1.851999 163 255 0 0.000000
387951.830999 3551521.670998 6.482000 255 166 0 0.000000
387952.677000 3551521.561996 7.888000 255 112 0 0.000000
387953.742001 3551522.166000 4.889000 255 228 0 0.000000
387951.864000 3551521.461998 6.370001 255 170 0 0.000000
387952.715000 3551521.377998 7.674000 255 120 0 0.000000
387951.924999 3551521.487000 4.622999 255 238 0 0.000000
387954.462999 3551526.182999 0.610001 115 255 0 0.000000
387953.056000 3551524.130997 7.806999 255 115 0 0.000000
387954.443001 3551525.755997 1.295000 142 255 0 0.000000
387952.201000 3551523.822998 7.674000 255 120 0 0.000000
387953.096001 3551523.955002 7.605000 255 122 0 0.000000
387954.430000 3551525.362000 1.886999 165 255 0 0.000000
387952.235001 3551523.616997 7.572001 255 124 0 0.000000
387953.096001 3551523.612000 8.134001 255 102 0 0.000000
387954.047001 3551523.935997 7.177999 255 139 0 0.000000
387952.264999 3551523.404999 7.521999 255 126 0 0.000000
387953.122000 3551523.380997 8.194000 255 100 0 0.000000
387954.076000 3551523.712997 7.177999 255 139 0 0.000000
387952.290001 3551523.147003 7.690001 255 119 0 0.000000
387953.177999 3551523.262001 7.695999 255 119 0 0.000000
387954.320999 3551524.046997 4.462999 255 244 0 0.000000
387955.396999 3551524.399002 3.398001 223 255 0 0.000000
387952.400999 3551523.393997 5.275000 255 213 0 0.000000
387953.171000 3551522.908997 8.337999 255 94 0 0.000000
387954.087999 3551523.142998 7.738001 255 117 0 0.000000
387955.417999 3551524.130997 3.480000 227 255 0 0.000000
387952.341999 3551522.657997 7.912001 255 110 0 0.000000
387953.208000 3551522.720001 8.188999 255 100 0 0.000000
387954.236000 3551523.213997 6.247000 255 175 0 0.000000
387955.355000 3551523.706001 4.378000 255 248 0 0.000000
387952.375000 3551522.444000 7.865999 255 112 0 0.000000
387953.278000 3551522.629997 7.482000 255 127 0 0.000000
387954.253000 3551522.949997 6.400999 255 169 0 0.000000
387955.396999 3551523.481003 4.263000 255 252 0 0.000000
387952.403999 3551522.227997 7.854000 255 112 0 0.000000
387953.355000 3551522.559998 6.653000 255 160 0 0.000000
387954.288000 3551522.737999 6.325001 255 172 0 0.000000
387955.426001 3551523.242996 4.266001 255 252 0 0.000000
387951.584999 3551522.184998 6.139000 255 179 0 0.000000
387952.437000 3551522.022003 7.774000 255 116 0 0.000000
387953.371000 3551522.290001 6.892000 255 150 0 0.000000
387954.173000 3551522.197998 8.062000 255 105 0 0.000000
387955.480000 3551523.038002 4.042999 249 255 0 0.000000
387951.610001 3551521.866997 6.665001 255 159 0 0.000000
387952.468000 3551521.807999 7.729000 255 118 0 0.000000
387953.483000 3551522.290001 5.547001 255 202 0 0.000000
387955.521000 3551522.813004 3.937000 244 255 0 0.000000
387951.643000 3551521.667999 6.504000 255 165 0 0.000000
387952.511000 3551521.643997 7.386000 255 131 0 0.000000
387953.466999 3551521.936996 6.294001 255 173 0 0.000000
387951.677000 3551521.461998 6.374001 255 170 0 0.000000
387952.539000 3551521.417999 7.421000 255 130 0 0.000000
387951.752001 3551521.627998 3.686001 234 255 0 0.000000
387952.582001 3551521.245003 7.103001 255 142 0 0.000000
387951.768999 3551521.242996 4.690001 255 236 0 0.000000
387954.268000 3551526.107002 0.785999 122 255 0 0.000000
387952.879000 3551524.109001 7.798000 255 115 0 0.000000
387954.290001 3551525.817001 0.903999 127 255 0 0.000000
387955.330000 3551525.917999 1.063999 133 255 0 0.000000
387952.023001 3551523.797997 7.659000 255 121 0 0.000000
387952.924999 3551523.955002 7.476999 255 127 0 0.000000
387954.281000 3551525.426003 1.451000 148 255 0 0.000000
387955.271999 3551525.446999 1.954000 167 255 0 0.000000
387952.054001 3551523.575996 7.642000 255 121 0 0.000000
387952.926001 3551523.616997 7.993000 255 107 0 0.000000
387954.246000 3551524.972000 2.322001 181 255 0 0.000000
387955.298000 3551525.176003 2.003000 169 255 0 0.000000
387952.087999 3551523.378998 7.518000 255 126 0 0.000000
387952.962999 3551523.429001 7.837999 255 113 0 0.000000
387953.903000 3551523.698997 7.108999 255 142 0 0.000000
387952.115999 3551523.137001 7.590000 255 123 0 0.000000
387953.007999 3551523.258003 7.563999 255 124 0 0.000000
387954.160000 3551524.061996 4.232000 255 253 0 0.000000
387952.402000 3551524.438004 -0.231001 83 255 0 0.000000
387953.014999 3551522.963997 7.938000 255 109 0 0.000000
387953.910999 3551523.124001 7.714001 255 118 0 0.000000
387955.358000 3551524.337997 2.323999 181 255 0 0.000000
387953.030001 3551522.700996 8.173000 255 100 0 0.000000
387953.952000 3551522.936996 7.541000 255 125 0 0.000000
387955.173000 3551523.679001 4.385000 255 248 0 0.000000
387952.249001 3551522.700996 6.337000 255 171 0 0.000000
387953.093000 3551522.588997 7.583000 255 123 0 0.000000
387953.975000 3551522.695999 7.618000 255 122 0 0.000000
387955.232000 3551523.485001 4.108000 251 255 0 0.000000
387952.225000 3551522.189003 7.909000 255 111 0 0.000000
387953.195000 3551522.582001 6.354000 255 171 0 0.000000
387954.166000 3551522.828003 5.650000 255 198 0 0.000000
387955.281000 3551523.266998 3.940001 244 255 0 0.000000
387952.264999 3551522.018997 7.625000 255 121 0 0.000000
387953.177000 3551522.216003 7.160999 255 139 0 0.000000
387953.983000 3551522.146004 8.202999 255 99 0 0.000000
387955.311001 3551523.028999 3.931999 244 255 0 0.000000
387952.316999 3551521.905998 6.993999 255 146 0 0.000000
387953.216999 3551522.026001 6.976000 255 147 0 0.000000
387952.326000 3551521.591003 7.552000 255 124 0 0.000000
387953.292999 3551521.921997 6.216999 255 176 0 0.000000
387951.538000 3551521.820000 3.790001 239 255 0 0.000000
387952.358000 3551521.373001 7.524000 255 126 0 0.000000
387953.294001 3551521.614998 6.705000 255 157 0 0.000000
387951.573999 3551521.612999 3.565001 230 255 0 0.000000
387952.400999 3551521.207001 7.163000 255 139 0 0.000000
387951.605000 3551521.349998 3.722000 236 255 0 0.000000
387952.686001 3551524.069000 7.652000 255 121 0 0.000000
387953.973000 3551525.396004 2.354000 183 255 0 0.000000
387955.138000 3551525.869003 0.882999 126 255 0 0.000000
387952.721001 3551523.865997 7.541000 255 125 0 0.000000
387953.826000 3551524.612000 4.712000 255 235 0 0.000000
387955.056000 3551525.346001 2.017000 170 255 0 0.000000
387951.947001 3551524.176003 4.448000 255 245 0 0.000000
387952.707001 3551523.470001 8.343000 255 94 0 0.000000
387953.681000 3551523.875999 6.993999 255 146 0 0.000000
387955.084999 3551525.082001 2.045000 171 255 0 0.000000
387951.958000 3551523.786003 5.174999 255 217 0 0.000000
387952.745001 3551523.288002 8.171000 255 100 0 0.000000
387953.694000 3551523.607002 7.191000 255 139 0 0.000000
387955.172001 3551524.945000 1.480000 149 255 0 0.000000
387951.916000 3551523.073997 7.570999 255 124 0 0.000000
387952.778999 3551523.089996 8.059999 255 105 0 0.000000
387953.700001 3551523.325996 7.469000 255 127 0 0.000000
387955.200001 3551524.676003 1.527000 151 255 0 0.000000
387952.056999 3551523.528000 4.052999 249 255 0 0.000000
387952.813000 3551522.890999 7.957001 255 109 0 0.000000
387953.731001 3551523.110001 7.431999 255 129 0 0.000000
387955.166000 3551524.290001 2.156000 175 255 0 0.000000
387952.094999 3551523.316002 3.867001 242 255 0 0.000000
387952.854000 3551522.706001 7.756001 255 116 0 0.000000
387953.739000 3551522.831001 7.693001 255 119 0 0.000000
387955.219999 3551524.072998 1.931999 166 255 0 0.000000
387952.128000 3551523.067001 3.882000 242 255 0 0.000000
387952.888000 3551522.500999 7.655001 255 121 0 0.000000
387953.771999 3551522.616997 7.645000 255 121 0 0.000000
387955.061001 3551523.464996 3.778000 238 255 0 0.000000
387952.070000 3551522.352997 6.582001 255 162 0 0.000000
387952.957001 3551522.402000 6.973000 255 147 0 0.000000
387953.804001 3551522.404999 7.599001 255 123 0 0.000000
387955.104000 3551523.246002 3.645000 233 255 0 0.000000
387952.084000 3551522.052002 7.028999 255 145 0 0.000000
387952.983999 3551522.171997 7.007999 255 145 0 0.000000
387953.819000 3551522.158997 7.743999 255 117 0 0.000000
387952.129999 3551521.900002 6.591000 255 162 0 0.000000
387952.989000 3551521.877998 7.427999 255 130 0 0.000000
387954.046000 3551522.345001 5.339001 255 210 0 0.000000
387952.128000 3551521.526001 7.514000 255 126 0 0.000000
387953.011999 3551521.638000 7.524000 255 126 0 0.000000
387951.334000 3551521.755997 3.695000 235 255 0 0.000000
387952.152000 3551521.281998 7.653999 255 121 0 0.000000
387953.077000 3551521.505997 6.943001 255 148 0 0.000000
387951.343000 3551521.271004 5.410000 255 207 0 0.000000
387952.343000 3551521.320000 4.254999 255 252 0 0.000000
387953.339001 3551524.183998 8.146000 255 101 0 0.000000
387954.874001 3551525.864998 1.466000 148 255 0 0.000000
387952.518000 3551523.967003 7.598000 255 123 0 0.000000
387953.792000 3551525.241997 2.461000 187 255 0 0.000000
387954.823000 3551525.407997 2.309999 181 255 0 0.000000
387952.552999 3551523.764999 7.497999 255 127 0 0.000000
387953.452999 3551523.911003 7.365999 255 132 0 0.000000
387954.872000 3551525.191002 2.134001 174 255 0 0.000000
387951.805000 3551524.258003 3.472000 226 255 0 0.000000
387952.541000 3551523.382004 8.257000 255 97 0 0.000000
387953.445999 3551523.584000 7.841999 255 113 0 0.000000
387954.944000 3551525.025002 1.718000 158 255 0 0.000000
387951.836000 3551523.995003 3.554001 229 255 0 0.000000
387952.577999 3551523.190002 8.121000 255 103 0 0.000000
387953.528999 3551523.513000 7.110001 255 142 0 0.000000
387955.000000 3551524.818001 1.468000 148 255 0 0.000000
387951.858000 3551523.679001 3.906000 243 255 0 0.000000
387952.614000 3551522.997002 7.992001 255 107 0 0.000000
387953.541000 3551523.245003 7.323000 255 133 0 0.000000
387955.239000 3551524.977997 -0.580000 69 255 0 0.000000
387951.889000 3551523.419998 3.966000 246 255 0 0.000000
387952.643000 3551522.777000 7.969999 255 108 0 0.000000
387953.610001 3551523.114998 6.819000 255 153 0 0.000000
387954.669001 3551523.528000 5.333000 255 210 0 0.000000
387955.861000 3551524.030998 3.448999 225 255 0 0.000000
387951.926001 3551523.195000 3.855000 241 255 0 0.000000
387952.664000 3551522.525002 8.132000 255 102 0 0.000000
387953.593000 3551522.778000 7.392000 255 130 0 0.000000
387954.662001 3551523.223999 5.677999 255 197 0 0.000000
387951.961000 3551522.963997 3.792999 239 255 0 0.000000
387952.709000 3551522.362000 7.830000 255 114 0 0.000000
387953.594000 3551522.492996 7.731001 255 118 0 0.000000
387954.895000 3551523.359001 3.705000 235 255 0 0.000000
387951.899000 3551522.240997 6.586000 255 162 0 0.000000
387952.737000 3551522.141998 7.830999 255 114 0 0.000000
387953.653999 3551522.344002 7.332001 255 133 0 0.000000
387954.951000 3551523.160004 3.457001 225 255 0 0.000000
387951.938000 3551522.056000 6.343000 255 171 0 0.000000
387952.783001 3551521.973000 7.537001 255 125 0 0.000000
387953.871000 3551522.522003 5.010000 255 223 0 0.000000
387951.965000 3551521.803001 6.483000 255 166 0 0.000000
387952.782000 3551521.664001 8.056000 255 105 0 0.000000
387953.681999 3551521.836998 7.691000 255 119 0 0.000000
387951.974001 3551521.483002 7.077000 255 143 0 0.000000
387952.820999 3551521.470001 7.896999 255 111 0 0.000000
387952.037001 3551521.390999 6.207001 255 177 0 0.000000
387952.903000 3551521.388000 7.006001 255 145 0 0.000000
387952.132999 3551521.416000 4.437000 255 246 0 0.000000
387953.212000 3551524.319000 7.971001 255 108 0 0.000000
387954.759001 3551526.023003 1.263000 140 255 0 0.000000
387953.223000 3551524.051003 8.181999 255 100 0 0.000000
387954.698000 3551525.550003 2.188000 176 255 0 0.000000
387952.490000 3551524.186996 6.011000 255 184 0 0.000000
387953.284000 3551523.922997 7.750999 255 117 0 0.000000
387954.742001 3551525.317001 2.059000 171 255 0 0.000000
387952.459999 3551523.708000 7.153999 255 140 0 0.000000
387954.783001 3551525.080002 1.961000 168 255 0 0.000000
387952.434000 3551523.271004 8.177000 255 100 0 0.000000
387953.306000 3551523.382004 8.188000 255 100 0 0.000000
387954.639999 3551524.455002 3.687000 234 255 0 0.000000
387955.673000 3551524.648003 3.395000 223 255 0 0.000000
387951.730000 3551523.850998 3.555000 229 255 0 0.000000
387952.490999 3551523.155998 7.660999 255 120 0 0.000000
387953.426001 3551523.403000 7.011000 255 145 0 0.000000
387955.097000 3551525.077003 -0.513000 71 255 0 0.000000
387955.695999 3551524.390999 3.438999 225 255 0 0.000000
387951.750999 3551523.532997 3.926001 244 255 0 0.000000
387952.576000 3551523.132004 6.639999 255 160 0 0.000000
387953.648001 3551523.663002 4.554001 255 241 0 0.000000
387955.135000 3551524.814003 -0.549999 70 255 0 0.000000
387955.701000 3551524.102997 3.632000 232 255 0 0.000000
387951.893999 3551523.907997 0.577999 114 255 0 0.000000
387952.524000 3551522.623001 8.115000 255 103 0 0.000000
387953.469000 3551522.914001 7.188000 255 139 0 0.000000
387954.521000 3551523.319000 5.702000 255 196 0 0.000000
387955.700001 3551523.804001 3.870001 242 255 0 0.000000
387951.962000 3551523.820000 -0.414000 75 255 0 0.000000
387952.541000 3551522.363998 8.316000 255 94 0 0.000000
387953.466999 3551522.614998 7.576000 255 124 0 0.000000
387954.541000 3551523.069000 5.782000 255 193 0 0.000000
387955.695999 3551523.508003 4.132999 252 255 0 0.000000
387951.854000 3551522.820999 3.820999 240 255 0 0.000000
387952.573999 3551522.167999 8.228001 255 98 0 0.000000
387953.511000 3551522.435997 7.367001 255 132 0 0.000000
387954.802000 3551523.249001 3.559000 230 255 0 0.000000
387951.782000 3551522.071999 6.836000 255 152 0 0.000000
387952.618999 3551521.997002 7.954000 255 109 0 0.000000
387954.771000 3551522.897003 4.148001 252 255 0 0.000000
387951.816000 3551521.862000 6.729000 255 157 0 0.000000
387952.636000 3551521.742996 8.155001 255 101 0 0.000000
387954.027000 3551522.918999 1.830000 163 255 0 0.000000
387951.857000 3551521.678001 6.444000 255 168 0 0.000000
387952.681000 3551521.564003 7.895000 255 111 0 0.000000
387953.796000 3551522.146004 5.004000 255 223 0 0.000000
387951.893000 3551521.473999 6.306000 255 173 0 0.000000
387952.725000 3551521.388000 7.635000 255 121 0 0.000000
387952.024000 3551521.630997 3.679001 234 255 0 0.000000
387952.014999 3551521.237000 4.750999 255 234 0 0.000000
387953.100000 3551524.361000 7.990999 255 107 0 0.000000
387954.657000 3551526.078003 1.259001 140 255 0 0.000000
387953.135000 3551524.160004 7.896000 255 111 0 0.000000
387954.603001 3551525.615997 2.115999 174 255 0 0.000000
387953.173000 3551523.959000 7.775000 255 115 0 0.000000
387954.643999 3551525.374001 2.025999 170 255 0 0.000000
387952.336000 3551523.695000 7.431000 255 129 0 0.000000
387954.153000 3551523.994003 7.145000 255 140 0 0.000000
387952.337000 3551523.362999 7.940001 255 109 0 0.000000
387953.198000 3551523.432999 8.160000 255 101 0 0.000000
387954.171000 3551523.744003 7.242001 255 136 0 0.000000
387955.587000 3551524.725998 3.261000 218 255 0 0.000000
387952.372000 3551523.165001 7.822001 255 114 0 0.000000
387953.226999 3551523.213997 8.146000 255 101 0 0.000000
387955.004999 3551525.139000 -0.570999 69 255 0 0.000000
387955.591999 3551524.434998 3.448999 225 255 0 0.000000
387952.469999 3551523.181999 6.601999 255 161 0 0.000000
387953.301001 3551523.108002 7.573000 255 124 0 0.000000
387954.496000 3551523.815002 4.643000 255 237 0 0.000000
387955.625999 3551524.195999 3.409000 224 255 0 0.000000
387951.791000 3551523.956001 0.597000 115 255 0 0.000000
387952.424999 3551522.708000 7.905001 255 111 0 0.000000
387953.268000 3551522.739998 8.330999 255 94 0 0.000000
387954.201000 3551522.970001 7.736000 255 118 0 0.000000
387955.604000 3551523.866997 3.816999 240 255 0 0.000000
387951.882999 3551523.973999 -0.978001 53 255 0 0.000000
387952.429001 3551522.403000 8.344000 255 94 0 0.000000
387953.372000 3551522.692001 7.399000 255 130 0 0.000000
387955.614000 3551523.588997 3.961000 245 255 0 0.000000
387951.907000 3551523.635002 -0.608999 68 255 0 0.000000
387952.473000 3551522.230003 8.089001 255 103 0 0.000000
387953.448999 3551522.573997 6.815001 255 153 0 0.000000
387954.693001 3551523.276001 3.632000 232 255 0 0.000000
387955.629000 3551523.321999 4.080999 250 255 0 0.000000
387951.695000 3551522.209000 6.250000 255 175 0 0.000000
387952.525000 3551522.080002 7.694000 255 119 0 0.000000
387953.487000 3551522.365997 6.709000 255 157 0 0.000000
387954.707001 3551523.005997 3.775000 238 255 0 0.000000
387951.709000 3551521.904999 6.719000 255 157 0 0.000000
387952.542999 3551521.830002 7.875999 255 112 0 0.000000
387953.614000 3551522.337997 5.540001 255 203 0 0.000000
387951.752001 3551521.737999 6.356001 255 171 0 0.000000
387952.570000 3551521.609001 7.900999 255 111 0 0.000000
387953.575001 3551521.974998 6.347000 255 171 0 0.000000
387951.778999 3551521.490997 6.469999 255 166 0 0.000000
387952.613001 3551521.420998 7.684999 255 119 0 0.000000
387953.757000 3551522.022003 4.576000 255 240 0 0.000000
387951.809999 3551521.262001 6.476999 255 166 0 0.000000
387952.667000 3551521.257004 7.301001 255 134 0 0.000000
387951.913000 3551521.289001 4.663000 255 237 0 0.000000
387954.601999 3551526.221001 0.750000 121 255 0 0.000000
387953.025000 3551524.194000 7.830000 255 114 0 0.000000
387954.625999 3551525.934998 0.830000 124 255 0 0.000000
387952.177000 3551523.878998 7.695000 255 119 0 0.000000
387953.076000 3551524.030998 7.535999 255 125 0 0.000000
387954.538000 3551525.400002 1.997999 169 255 0 0.000000
387952.214001 3551523.680000 7.569000 255 124 0 0.000000
387953.069000 3551523.708000 7.983999 255 108 0 0.000000
387954.568001 3551525.136002 2.018000 170 255 0 0.000000
387952.247999 3551523.478996 7.466999 255 127 0 0.000000
387953.086000 3551523.456001 8.128000 255 102 0 0.000000
387954.063000 3551523.775002 7.177000 255 139 0 0.000000
387952.274000 3551523.240997 7.537001 255 125 0 0.000000
387953.129999 3551523.278999 7.919001 255 110 0 0.000000
387954.399000 3551524.162003 4.229000 255 254 0 0.000000
387955.490000 3551524.467003 3.400000 223 255 0 0.000000
387952.429001 3551523.446999 5.351000 255 210 0 0.000000
387953.150000 3551523.037003 8.025000 255 106 0 0.000000
387954.389000 3551523.843002 4.608000 255 239 0 0.000000
387955.510000 3551524.204002 3.469999 226 255 0 0.000000
387952.316999 3551522.742996 7.797001 255 115 0 0.000000
387953.155001 3551522.758003 8.311001 255 95 0 0.000000
387954.077999 3551522.966003 7.823999 255 114 0 0.000000
387951.768000 3551523.936996 -0.677000 65 255 0 0.000000
387952.343000 3551522.508003 7.858999 255 112 0 0.000000
387953.247000 3551522.682999 7.535999 255 125 0 0.000000
387954.250000 3551523.001999 6.466999 255 166 0 0.000000
387955.458000 3551523.538002 4.322001 255 250 0 0.000000
387951.802000 3551523.660004 -0.632000 67 255 0 0.000000
387952.370001 3551522.288002 7.868000 255 112 0 0.000000
387953.358999 3551522.642998 6.538000 255 164 0 0.000000
387954.287001 3551522.790001 6.384001 255 170 0 0.000000
387955.493000 3551523.306999 4.268999 255 252 0 0.000000
387951.834999 3551523.375999 -0.539000 71 255 0 0.000000
387952.403000 3551522.081001 7.797001 255 115 0 0.000000
387953.364000 3551522.365997 6.820999 255 153 0 0.000000
387954.625999 3551523.071999 3.520000 228 255 0 0.000000
387955.584999 3551523.151001 3.801001 239 255 0 0.000000
387951.593000 3551521.917000 6.761000 255 155 0 0.000000
387952.447001 3551521.901001 7.568001 255 124 0 0.000000
387953.496000 3551522.348000 5.601000 255 200 0 0.000000
387951.632999 3551521.731003 6.518000 255 165 0 0.000000
387952.479000 3551521.688004 7.523001 255 126 0 0.000000
387953.465000 3551522.000000 6.309999 255 173 0 0.000000
387951.664000 3551521.508003 6.504000 255 165 0 0.000000
387952.502001 3551521.455002 7.610001 255 122 0 0.000000
387953.496000 3551521.776001 6.292999 255 173 0 0.000000
387951.808001 3551521.685997 3.714001 236 255 0 0.000000
387952.562000 3551521.303001 7.134001 255 141 0 0.000000
387951.798000 3551521.296997 4.750000 255 234 0 0.000000
387952.628000 3551521.156998 6.586000 255 162 0 0.000000
387954.503000 3551526.205002 0.802000 122 255 0 0.000000
387952.913000 3551524.172997 7.922001 255 110 0 0.000000
387954.521999 3551525.914001 0.917000 127 255 0 0.000000
387952.076000 3551523.896004 7.622999 255 121 0 0.000000
387952.971001 3551524.028000 7.552999 255 124 0 0.000000
387954.502001 3551525.528999 1.424999 147 255 0 0.000000
387952.098000 3551523.639999 7.761999 255 116 0 0.000000
387952.965000 3551523.709000 7.980000 255 108 0 0.000000
387954.466999 3551525.123001 2.072001 171 255 0 0.000000
387952.146000 3551523.483002 7.427999 255 129 0 0.000000
387952.992001 3551523.480003 7.993999 255 107 0 0.000000
387953.968000 3551523.785004 7.105000 255 142 0 0.000000
387952.172001 3551523.247002 7.496000 255 127 0 0.000000
387953.037001 3551523.306000 7.777000 255 115 0 0.000000
387954.020000 3551523.610001 6.874001 255 151 0 0.000000
387955.528000 3551524.685997 2.351000 183 255 0 0.000000
387952.330999 3551523.450996 5.302000 255 212 0 0.000000
387953.066999 3551523.085999 7.757000 255 116 0 0.000000
387954.299000 3551523.855003 4.520000 255 243 0 0.000000
387955.413000 3551524.199997 3.457001 225 255 0 0.000000
387952.358000 3551523.199997 5.375000 255 209 0 0.000000
387953.054001 3551522.768997 8.247999 255 97 0 0.000000
387953.988001 3551522.992996 7.686001 255 119 0 0.000000
387955.326000 3551523.773003 4.353001 255 249 0 0.000000
387952.240000 3551522.518997 7.809000 255 115 0 0.000000
387953.112000 3551522.619003 7.886000 255 112 0 0.000000
387954.139999 3551522.989998 6.533001 255 164 0 0.000000
387955.354000 3551523.530998 4.351999 255 249 0 0.000000
387951.707001 3551523.646004 -0.582001 69 255 0 0.000000
387952.257999 3551522.262001 7.993999 255 107 0 0.000000
387953.236000 3551522.597000 6.771000 255 155 0 0.000000
387954.183001 3551522.782997 6.393999 255 169 0 0.000000
387955.388000 3551523.292999 4.312000 255 250 0 0.000000
387951.747000 3551523.397003 -0.691000 65 255 0 0.000000
387952.299000 3551522.082001 7.784000 255 115 0 0.000000
387953.243000 3551522.332001 7.007999 255 145 0 0.000000
387954.466999 3551522.973999 4.058001 249 255 0 0.000000
387955.459000 3551523.113998 3.997000 246 255 0 0.000000
387952.340000 3551521.899002 7.583000 255 123 0 0.000000
387953.264999 3551522.098000 7.082001 255 143 0 0.000000
387954.042000 3551522.025002 8.179001 255 100 0 0.000000
387955.500000 3551522.888000 3.910999 243 255 0 0.000000
387951.837000 3551522.926003 -1.111000 48 255 0 0.000000
387952.375999 3551521.690002 7.483999 255 127 0 0.000000
387953.358999 3551521.988998 6.355000 255 171 0 0.000000
387951.878000 3551522.665001 -1.193001 45 255 0 0.000000
387952.402000 3551521.460999 7.537001 255 125 0 0.000000
387953.400000 3551521.780998 6.219000 255 176 0 0.000000
387951.711000 3551521.686996 3.658001 234 255 0 0.000000
387952.455999 3551521.292000 7.171000 255 139 0 0.000000
387953.472000 3551521.620003 5.747999 255 195 0 0.000000
387951.750999 3551521.468002 3.476999 226 255 0 0.000000
387952.523001 3551521.149002 6.601000 255 161 0 0.000000
387951.777000 3551521.209999 3.631001 232 255 0 0.000000
387954.378000 3551526.182999 0.672001 118 255 0 0.000000
387952.917999 3551524.543999 6.094000 255 181 0 0.000000
387954.370001 3551525.827003 1.056000 133 255 0 0.000000
387952.822001 3551523.966003 7.648001 255 121 0 0.000000
387954.362000 3551525.477997 1.436001 147 255 0 0.000000
387955.329000 3551525.459999 2.124001 174 255 0 0.000000
387952.167000 3551524.385002 4.073999 249 255 0 0.000000
387952.802000 3551523.617996 8.230000 255 98 0 0.000000
387954.364000 3551525.156998 1.709000 158 255 0 0.000000
387952.129999 3551523.888000 5.282000 255 213 0 0.000000
387952.860001 3551523.468002 7.872000 255 112 0 0.000000
387953.836000 3551523.764999 7.017000 255 145 0 0.000000
387952.025000 3551523.186996 7.586000 255 123 0 0.000000
387952.900000 3551523.276001 7.719999 255 118 0 0.000000
387953.837999 3551523.488998 7.249001 255 136 0 0.000000
387955.393000 3551524.639999 2.323000 181 255 0 0.000000
387952.063999 3551523.007004 7.392000 255 130 0 0.000000
387952.931000 3551523.067001 7.674999 255 120 0 0.000000
387953.839001 3551523.221001 7.493000 255 127 0 0.000000
387955.291000 3551524.190002 3.316000 220 255 0 0.000000
387952.461000 3551523.917000 1.340000 143 255 0 0.000000
387952.923000 3551522.754997 8.112000 255 103 0 0.000000
387953.848000 3551522.956001 7.664000 255 120 0 0.000000
387955.184999 3551523.726997 4.351999 255 249 0 0.000000
387952.320000 3551523.140999 4.181000 254 255 0 0.000000
387952.945999 3551522.528000 8.160999 255 100 0 0.000000
387953.872000 3551522.731003 7.694000 255 119 0 0.000000
387955.261000 3551523.557999 3.988001 246 255 0 0.000000
387952.114000 3551522.219002 8.025000 255 106 0 0.000000
387953.072001 3551522.513000 7.024000 255 145 0 0.000000
387953.907000 3551522.518997 7.625999 255 121 0 0.000000
387955.298000 3551523.320000 3.938000 244 255 0 0.000000
387952.166000 3551522.065002 7.639999 255 121 0 0.000000
387953.103001 3551522.290001 6.997999 255 146 0 0.000000
387953.919001 3551522.272003 7.764000 255 116 0 0.000000
387955.330999 3551523.082001 3.903000 243 255 0 0.000000
387952.250999 3551521.990997 6.759001 255 155 0 0.000000
387953.127001 3551522.058998 7.046000 255 144 0 0.000000
387953.910000 3551521.998001 8.083000 255 104 0 0.000000
387952.240999 3551521.667999 7.375999 255 131 0 0.000000
387953.098000 3551521.728996 7.709000 255 118 0 0.000000
387952.250999 3551521.403999 7.664000 255 120 0 0.000000
387953.202000 3551521.643997 6.847000 255 152 0 0.000000
387951.566999 3551521.636002 3.726000 236 255 0 0.000000
387952.292000 3551521.207001 7.490000 255 127 0 0.000000
387953.233999 3551521.421997 6.813999 255 153 0 0.000000
387951.603001 3551521.398003 3.684000 234 255 0 0.000000
387952.372000 3551521.092003 6.739000 255 156 0 0.000000
387951.861000 3551521.834000 -1.438000 35 255 0 0.000000
387954.259001 3551526.060997 0.783001 121 255 0 0.000000
387952.680000 3551524.119003 7.624001 255 121 0 0.000000
387954.282000 3551525.778999 0.864000 125 255 0 0.000000
387955.327000 3551525.875000 1.054001 133 255 0 0.000000
387952.715000 3551523.907997 7.541000 255 125 0 0.000000
387955.233999 3551525.388000 2.014000 169 255 0 0.000000
387952.040001 3551524.228996 4.377001 255 248 0 0.000000
387952.690001 3551523.545998 8.177000 255 100 0 0.000000
387953.688000 3551523.902000 7.063999 255 143 0 0.000000
387952.014999 3551523.788002 5.327999 255 211 0 0.000000
387952.698999 3551523.272003 8.420000 255 91 0 0.000000
387953.722000 3551523.682999 7.003000 255 146 0 0.000000
387951.908001 3551523.102997 7.611000 255 122 0 0.000000
387952.753000 3551523.119003 8.105000 255 103 0 0.000000
387953.712000 3551523.390999 7.341999 255 133 0 0.000000
387951.936001 3551522.885002 7.605000 255 122 0 0.000000
387952.798000 3551522.945000 7.888000 255 112 0 0.000000
387953.725000 3551523.141998 7.473000 255 127 0 0.000000
387955.302000 3551524.281998 2.400000 184 255 0 0.000000
387952.187000 3551523.321999 4.040001 249 255 0 0.000000
387952.836000 3551522.740997 7.775999 255 115 0 0.000000
387953.763000 3551522.931999 7.382999 255 131 0 0.000000
387955.247000 3551523.897003 3.042000 210 255 0 0.000000
387952.233000 3551523.120003 3.806999 239 255 0 0.000000
387952.877001 3551522.549004 7.615000 255 122 0 0.000000
387953.761999 3551522.657997 7.643999 255 121 0 0.000000
387955.143000 3551523.458000 4.037001 248 255 0 0.000000
387952.089001 3551522.392998 6.583000 255 162 0 0.000000
387952.870001 3551522.257004 8.017000 255 106 0 0.000000
387953.777000 3551522.418999 7.747999 255 117 0 0.000000
387955.167000 3551523.208000 4.075001 249 255 0 0.000000
387952.089001 3551522.089996 7.042000 255 145 0 0.000000
387953.826000 3551522.233002 7.556999 255 124 0 0.000000
387955.364000 3551523.186996 2.834999 201 255 0 0.000000
387952.145000 3551521.934998 6.620001 255 160 0 0.000000
387952.976999 3551521.917999 7.434999 255 129 0 0.000000
387953.825001 3551521.970001 7.806999 255 115 0 0.000000
387952.122999 3551521.581001 7.422001 255 130 0 0.000000
387952.999001 3551521.678001 7.525999 255 125 0 0.000000
387951.424000 3551521.787003 3.733000 237 255 0 0.000000
387952.135000 3551521.319000 7.683001 255 119 0 0.000000
387953.080999 3551521.550003 6.917999 255 149 0 0.000000
387951.455999 3551521.543999 3.756001 237 255 0 0.000000
387952.187000 3551521.150002 7.347000 255 133 0 0.000000
387951.490000 3551521.303001 3.730000 236 255 0 0.000000
387952.441000 3551521.384003 4.042999 249 255 0 0.000000
387951.757999 3551521.741997 -1.483000 34 255 0 0.000000
387952.629000 3551524.417000 6.385000 255 170 0 0.000000
387953.372000 3551524.144997 8.105000 255 103 0 0.000000
387955.177000 3551525.898003 1.048000 132 255 0 0.000000
387952.566000 3551523.941002 7.499001 255 127 0 0.000000
387953.461000 3551524.057999 7.502001 255 127 0 0.000000
387955.103001 3551525.452003 1.853001 163 255 0 0.000000
387951.947001 3551524.459999 3.382000 222 255 0 0.000000
387952.598000 3551523.719002 7.465000 255 128 0 0.000000
387953.537001 3551523.925003 7.052999 255 144 0 0.000000
387955.118000 3551525.161003 1.972000 168 255 0 0.000000
387951.872999 3551523.849998 5.164000 255 217 0 0.000000
387952.556000 3551523.324997 8.295000 255 95 0 0.000000
387953.552999 3551523.681000 7.152000 255 140 0 0.000000
387955.466000 3551525.426003 -0.452000 74 255 0 0.000000
387951.900000 3551523.605003 5.216999 255 215 0 0.000000
387952.600000 3551523.149002 8.091000 255 103 0 0.000000
387953.573999 3551523.445999 7.209000 255 138 0 0.000000
387951.997000 3551523.572998 4.136000 252 255 0 0.000000
387952.638000 3551522.946999 7.981001 255 108 0 0.000000
387953.590000 3551523.194000 7.316999 255 133 0 0.000000
387955.212000 3551524.396004 1.938999 167 255 0 0.000000
387952.041000 3551523.358002 3.948999 245 255 0 0.000000
387952.648001 3551522.681999 8.188000 255 100 0 0.000000
387953.676001 3551523.063004 6.797001 255 154 0 0.000000
387955.238001 3551524.124001 1.981001 169 255 0 0.000000
387952.075001 3551523.125999 3.903000 243 255 0 0.000000
387952.673000 3551522.460999 8.221001 255 98 0 0.000000
