387959.280001 3551521.910004 1.510000 150 255 0 0.000000
387957.400999 3551522.209000 -1.909000 17 255 0 0.000000
387958.400999 3551521.540001 1.480000 149 255 0 0.000000
387959.371000 3551522.330002 -1.159000 47 255 0 0.000000
387957.520000 3551521.238998 1.181000 137 255 0 0.000000
387958.441000 3551521.470001 0.811001 123 255 0 0.000000
387959.410999 3551522.058998 -1.110001 48 255 0 0.000000
387956.280001 3551522.550003 -6.389000 0 98 156 0.000000
387958.471001 3551521.160004 1.131001 136 255 0 0.000000
387959.441000 3551521.750000 -0.819000 59 255 0 0.000000
387956.361000 3551522.139000 -5.729000 0 124 130 0.000000
387957.441000 3551522.278999 -5.639000 0 127 127 0.000000
387958.511000 3551520.910004 1.190001 138 255 0 0.000000
387959.481001 3551521.550003 -1.020000 52 255 0 0.000000
387956.400999 3551521.870003 -5.778999 0 122 132 0.000000
387957.481001 3551522.069000 -5.969999 0 115 139 0.000000
387958.551001 3551521.488998 -2.528999 0 249 5 0.000000
387958.590000 3551521.230003 -2.509001 0 249 5 0.000000
387957.559999 3551521.518997 -5.950001 0 115 139 0.000000
387958.629999 3551520.918999 -2.270000 3 255 0 0.000000
387958.691000 3551521.410004 -5.969999 0 115 139 0.000000
387958.731001 3551521.160004 -6.118999 0 109 145 0.000000
387958.770000 3551520.878998 -6.080002 0 110 144 0.000000
387957.580999 3551525.000000 3.701000 235 255 0 0.000000
387957.650999 3551524.300003 5.070000 255 221 0 0.000000
387958.511000 3551524.778999 4.049999 249 255 0 0.000000
387956.691000 3551525.110001 1.631001 154 255 0 0.000000
387957.681000 3551524.010002 5.271000 255 213 0 0.000000
387958.541000 3551524.650002 3.791000 239 255 0 0.000000
387959.450001 3551525.040001 3.049999 210 255 0 0.000000
387956.709999 3551524.970001 1.291000 142 255 0 0.000000
387957.721001 3551523.709000 5.480000 255 205 0 0.000000
387958.570000 3551524.300003 4.131001 252 255 0 0.000000
387959.490000 3551524.838997 2.910000 204 255 0 0.000000
387956.840000 3551523.980003 3.570000 230 255 0 0.000000
387957.750000 3551523.518997 5.400999 255 208 0 0.000000
387958.600000 3551523.709000 5.221001 255 215 0 0.000000
387959.459999 3551523.988998 4.760000 255 233 0 0.000000
387956.871000 3551523.819000 3.381001 222 255 0 0.000000
387958.639999 3551523.650002 4.730000 255 234 0 0.000000
387959.570000 3551524.540001 2.410000 185 255 0 0.000000
387956.801001 3551524.470001 0.530001 112 255 0 0.000000
387957.820000 3551523.050003 5.510000 255 204 0 0.000000
387958.670000 3551523.319000 5.049999 255 222 0 0.000000
387956.889999 3551523.800003 1.931000 166 255 0 0.000000
387957.861000 3551522.848999 5.451000 255 206 0 0.000000
387958.709999 3551523.360001 4.221001 255 254 0 0.000000
387956.931000 3551523.558998 1.940001 167 255 0 0.000000
387957.879999 3551522.808998 4.889999 255 228 0 0.000000
387958.740000 3551523.069000 4.451000 255 245 0 0.000000
387959.611000 3551523.308998 4.091000 250 255 0 0.000000
387956.959999 3551523.389000 1.709999 158 255 0 0.000000
387957.910999 3551522.650002 4.660000 255 237 0 0.000000
387958.791000 3551523.160004 3.410000 224 255 0 0.000000
387959.660999 3551523.220001 3.620001 232 255 0 0.000000
387956.059999 3551523.150002 1.221001 139 255 0 0.000000
387957.941000 3551522.569000 4.190001 254 255 0 0.000000
387958.820000 3551522.918999 3.440001 225 255 0 0.000000
387959.709999 3551523.168999 3.049999 210 255 0 0.000000
387956.000000 3551523.418999 -0.610001 68 255 0 0.000000
387957.041000 3551522.930000 1.631001 154 255 0 0.000000
387957.981001 3551522.348999 4.181000 254 255 0 0.000000
387958.850000 3551522.680000 3.480000 227 255 0 0.000000
387959.740000 3551522.900002 3.160000 214 255 0 0.000000
387956.121000 3551522.750000 0.910000 127 255 0 0.000000
387957.100000 3551522.510002 2.320000 181 255 0 0.000000
387958.000000 3551522.620003 2.410000 185 255 0 0.000000
387958.889999 3551522.448997 3.490999 227 255 0 0.000000
387959.780001 3551522.750000 2.910000 204 255 0 0.000000
387956.129999 3551522.680000 0.291000 103 255 0 0.000000
387958.030001 3551522.528999 1.900999 166 255 0 0.000000
387958.941000 3551522.610001 2.100000 173 255 0 0.000000
387959.820000 3551522.569000 2.740999 198 255 0 0.000000
387956.181000 3551522.389000 0.440001 109 255 0 0.000000
387957.170000 3551522.098999 2.100000 173 255 0 0.000000
387958.070000 3551522.300003 1.850000 163 255 0 0.000000
387959.011000 3551522.889000 0.181000 98 255 0 0.000000
387959.900999 3551522.598999 1.760000 160 255 0 0.000000
387956.221001 3551522.160004 0.410000 107 255 0 0.000000
387957.200001 3551521.889000 2.010000 169 255 0 0.000000
387958.100000 3551522.040001 1.971001 168 255 0 0.000000
387959.000000 3551522.028999 2.530001 189 255 0 0.000000
387959.950001 3551522.470001 1.361000 144 255 0 0.000000
387957.200001 3551522.000000 0.660000 117 255 0 0.000000
387958.139999 3551521.738998 2.271000 180 255 0 0.000000
387959.041000 3551521.838997 2.400999 184 255 0 0.000000
387959.990000 3551522.278999 1.221001 139 255 0 0.000000
387957.221001 3551521.910004 0.041000 93 255 0 0.000000
387958.181000 3551521.459000 2.431000 186 255 0 0.000000
387959.090000 3551521.830002 1.521000 151 255 0 0.000000
387960.020000 3551522.010002 1.341000 143 255 0 0.000000
387958.209999 3551521.628998 0.771000 121 255 0 0.000000
387959.181000 3551522.209000 -1.000000 53 255 0 0.000000
387957.330999 3551521.160004 1.190001 138 255 0 0.000000
387958.250000 3551521.430000 0.660000 117 255 0 0.000000
387959.221001 3551521.948997 -0.959000 54 255 0 0.000000
387958.280001 3551521.050003 1.271000 141 255 0 0.000000
387959.261000 3551521.680000 -0.889000 57 255 0 0.000000
387956.139999 3551522.190002 -6.418999 0 97 157 0.000000
387957.250000 3551522.190002 -5.659000 0 127 127 0.000000
387958.320000 3551520.830002 1.190001 138 255 0 0.000000
387959.291000 3551521.418999 -0.819000 59 255 0 0.000000
387957.291000 3551521.988998 -5.979000 0 114 140 0.000000
387958.371000 3551522.209000 -6.250000 0 103 151 0.000000
387959.330999 3551521.180000 -0.819000 59 255 0 0.000000
387957.450001 3551520.598999 -0.599001 68 255 0 0.000000
387958.400999 3551521.120003 -2.389000 0 254 0 0.000000
387958.441000 3551520.830002 -2.240000 5 255 0 0.000000
387958.500000 3551521.338997 -6.028999 0 112 142 0.000000
387958.541000 3551521.010002 -5.770000 0 122 132 0.000000
387958.580999 3551520.790001 -6.028999 0 112 142 0.000000
387959.170000 3551526.168999 1.709999 158 255 0 0.000000
387958.261000 3551525.010002 3.881001 242 255 0 0.000000
387959.181000 3551525.628998 2.530001 189 255 0 0.000000
387957.441000 3551524.190002 5.181000 255 216 0 0.000000
387958.291000 3551524.540001 4.541000 255 241 0 0.000000
387959.181000 3551524.940002 3.791000 239 255 0 0.000000
387957.471001 3551524.050003 4.940001 255 226 0 0.000000
387958.330999 3551524.319000 4.530001 255 242 0 0.000000
387959.221001 3551524.790001 3.561001 230 255 0 0.000000
387957.500000 3551523.918999 4.670000 255 237 0 0.000000
387958.361000 3551523.819000 5.330999 255 210 0 0.000000
387959.209999 3551524.110001 4.861000 255 229 0 0.000000
387956.481001 3551525.110001 -0.090000 88 255 0 0.000000
387957.541000 3551523.510002 5.230000 255 215 0 0.000000
387958.389999 3551523.588997 5.381001 255 209 0 0.000000
387959.250000 3551523.910004 4.791000 255 231 0 0.000000
387956.520000 3551524.900002 -0.250000 82 255 0 0.000000
387958.431000 3551523.598999 4.670000 255 237 0 0.000000
387959.291000 3551523.778999 4.490999 255 243 0 0.000000
387956.590000 3551524.370003 0.631001 116 255 0 0.000000
387957.611000 3551523.010002 5.420000 255 207 0 0.000000
387958.459999 3551523.378998 4.650999 255 237 0 0.000000
387959.330999 3551523.610001 4.341000 255 249 0 0.000000
387956.670000 3551523.860001 1.521000 151 255 0 0.000000
387957.639999 3551522.948997 4.940001 255 226 0 0.000000
387958.490000 3551523.110001 4.830999 255 230 0 0.000000
387959.361000 3551523.378998 4.370001 255 248 0 0.000000
387956.709999 3551523.610001 1.549999 151 255 0 0.000000
387957.681000 3551522.668999 5.120001 255 219 0 0.000000
387958.520000 3551522.860001 4.889999 255 228 0 0.000000
387959.400999 3551523.238998 4.080999 250 255 0 0.000000
387956.700001 3551523.768997 0.181000 98 255 0 0.000000
387957.709999 3551522.448997 5.131001 255 219 0 0.000000
387958.570000 3551523.050003 3.530001 228 255 0 0.000000
387959.441000 3551523.088997 3.820000 240 255 0 0.000000
387956.791000 3551523.069000 1.740999 159 255 0 0.000000
387957.740000 3551522.360001 4.681000 255 236 0 0.000000
387958.600000 3551522.768997 3.709999 235 255 0 0.000000
387959.490000 3551523.040001 3.230000 217 255 0 0.000000
387958.639999 3551522.480003 3.920000 243 255 0 0.000000
387959.500000 3551522.628998 3.850000 241 255 0 0.000000
387955.840000 3551523.018997 -0.349001 78 255 0 0.000000
387956.850000 3551522.760002 1.131001 136 255 0 0.000000
387959.551001 3551522.518997 3.480000 227 255 0 0.000000
387955.889999 3551522.730003 -0.159000 85 255 0 0.000000
387956.879999 3551522.580002 0.920000 127 255 0 0.000000
387958.721001 3551522.378998 2.701000 196 255 0 0.000000
387959.650999 3551522.750000 1.841000 163 255 0 0.000000
387955.959999 3551522.360001 0.320000 103 255 0 0.000000
387956.950001 3551522.058998 2.030001 170 255 0 0.000000
387957.850000 3551522.260002 1.750000 160 255 0 0.000000
387958.750000 3551522.128998 2.771000 199 255 0 0.000000
387959.681000 3551522.550003 1.730000 159 255 0 0.000000
387956.000000 3551522.120003 0.330999 104 255 0 0.000000
387956.990000 3551521.819000 2.041000 171 255 0 0.000000
387957.889999 3551522.088997 1.500000 150 255 0 0.000000
387958.780001 3551521.778999 3.240999 217 255 0 0.000000
387959.691000 3551522.150002 2.330999 182 255 0 0.000000
387956.990000 3551521.910004 0.730000 120 255 0 0.000000
387957.931000 3551521.838997 1.561001 152 255 0 0.000000
387958.820000 3551521.639000 2.889999 204 255 0 0.000000
387959.780001 3551522.250000 1.049999 132 255 0 0.000000
387957.959999 3551521.639000 1.420000 147 255 0 0.000000
387958.879999 3551521.720001 1.660000 156 255 0 0.000000
387959.801001 3551521.948997 1.311001 142 255 0 0.000000
387958.000000 3551521.389000 1.471001 148 255 0 0.000000
387958.931000 3551521.639000 1.041000 132 255 0 0.000000
387959.871000 3551521.878998 0.620001 115 255 0 0.000000
387958.041000 3551521.260002 1.041000 132 255 0 0.000000
387958.990000 3551521.750000 -0.430000 75 255 0 0.000000
387956.990000 3551522.389000 -5.669001 0 126 128 0.000000
387958.070000 3551521.098999 0.709999 119 255 0 0.000000
387959.051001 3551521.660004 -1.090000 49 255 0 0.000000
387957.030001 3551522.120003 -5.688999 0 125 129 0.000000
387958.111000 3551522.400002 -6.220001 0 105 149 0.000000
387959.129999 3551521.819000 -2.900000 0 234 20 0.000000
387957.070000 3551521.918999 -6.008999 0 113 141 0.000000
387958.150999 3551521.980003 -5.540001 0 131 123 0.000000
387958.191000 3551521.680000 -5.430000 0 136 118 0.000000
387958.240000 3551521.370003 -5.240000 0 143 111 0.000000
387958.280001 3551521.180000 -5.618999 0 128 126 0.000000
387958.320000 3551520.980003 -5.990000 0 114 140 0.000000
387958.371000 3551520.709000 -6.028999 0 112 142 0.000000
387958.971001 3551526.080002 1.811001 162 255 0 0.000000
387958.059999 3551524.698997 4.570000 255 240 0 0.000000
387959.011000 3551525.910004 1.561001 152 255 0 0.000000
387957.200001 3551524.910004 2.920000 204 255 0 0.000000
387958.100000 3551524.569000 4.311001 255 250 0 0.000000
387958.990000 3551524.900002 3.750000 237 255 0 0.000000
387957.270000 3551524.050003 4.780001 255 232 0 0.000000
387958.129999 3551523.860001 5.709999 255 196 0 0.000000
387959.020000 3551524.698997 3.639999 233 255 0 0.000000
387957.301001 3551523.838997 4.730000 255 234 0 0.000000
387958.160999 3551523.628998 5.740999 255 195 0 0.000000
387959.020000 3551524.120003 4.670000 255 237 0 0.000000
387956.280001 3551525.050003 -0.129999 86 255 0 0.000000
387957.350000 3551523.459000 5.190001 255 216 0 0.000000
387958.191000 3551523.480003 5.530001 255 203 0 0.000000
387959.041000 3551523.738998 5.111000 255 219 0 0.000000
387957.350000 3551523.830002 3.341000 221 255 0 0.000000
387958.231001 3551523.300003 5.410000 255 207 0 0.000000
387959.080999 3551523.569000 4.959999 255 225 0 0.000000
387957.410999 3551523.040001 5.139999 255 218 0 0.000000
387958.261000 3551523.088997 5.370001 255 209 0 0.000000
387959.129999 3551523.588997 4.230000 255 254 0 0.000000
387956.471001 3551523.808998 1.471001 148 255 0 0.000000
387957.450001 3551522.838997 5.080999 255 220 0 0.000000
387958.301001 3551523.088997 4.681000 255 236 0 0.000000
387959.160999 3551523.338997 4.291000 255 251 0 0.000000
387957.481001 3551522.668999 4.910000 255 227 0 0.000000
387958.330999 3551522.808998 4.889999 255 228 0 0.000000
387959.209999 3551523.290001 3.740999 237 255 0 0.000000
387956.490000 3551523.760002 -0.020000 91 255 0 0.000000
387957.511000 3551522.459000 4.889999 255 228 0 0.000000
387958.371000 3551522.900002 3.850000 241 255 0 0.000000
387959.240000 3551523.018997 3.870001 242 255 0 0.000000
387956.570000 3551523.230003 0.959999 129 255 0 0.000000
387957.541000 3551522.278999 4.760000 255 233 0 0.000000
387958.400999 3551522.598999 4.080999 250 255 0 0.000000
387959.280001 3551522.870003 3.611000 231 255 0 0.000000
387956.611000 3551522.930000 1.190001 138 255 0 0.000000
387957.570000 3551522.378998 3.631001 232 255 0 0.000000
387958.431000 3551522.348999 4.190001 254 255 0 0.000000
387959.309999 3551522.580002 3.841000 240 255 0 0.000000
387956.629999 3551522.848999 0.580999 114 255 0 0.000000
387957.600000 3551522.209000 3.410000 224 255 0 0.000000
387958.481001 3551522.278999 3.631001 232 255 0 0.000000
387959.340000 3551522.400002 3.670000 234 255 0 0.000000
387956.670000 3551522.650002 0.440001 109 255 0 0.000000
387957.629999 3551521.980003 3.451000 225 255 0 0.000000
387958.520000 3551522.300003 2.771000 199 255 0 0.000000
387959.611000 3551523.848999 -2.340000 0 255 0 0.000000
387956.721001 3551522.330002 0.740999 120 255 0 0.000000
387957.660999 3551522.150002 1.959999 168 255 0 0.000000
387958.551001 3551522.028999 2.931000 205 255 0 0.000000
387959.490000 3551522.470001 1.771000 160 255 0 0.000000
387957.691000 3551522.260002 0.600000 115 255 0 0.000000
387958.590000 3551521.808998 2.881001 203 255 0 0.000000
387959.500000 3551522.098999 2.271000 180 255 0 0.000000
387956.801001 3551521.808998 0.931000 127 255 0 0.000000
387957.721001 3551522.040001 0.530001 112 255 0 0.000000
387958.639999 3551521.790001 2.100000 173 255 0 0.000000
387959.551001 3551522.010002 1.760000 160 255 0 0.000000
387957.770000 3551521.558998 1.510000 150 255 0 0.000000
387958.691000 3551521.800003 1.111000 134 255 0 0.000000
387959.590000 3551521.768997 1.771000 160 255 0 0.000000
387957.801001 3551521.518997 0.690001 118 255 0 0.000000
387958.731001 3551521.569000 1.080999 133 255 0 0.000000
387959.761000 3551522.330002 -1.438999 35 255 0 0.000000
387957.840000 3551521.220001 0.980000 130 255 0 0.000000
387958.761000 3551521.330002 1.080999 133 255 0 0.000000
387959.691000 3551521.510002 0.931000 127 255 0 0.000000
387956.801001 3551522.220001 -5.139000 0 147 107 0.000000
387957.871000 3551520.980003 1.000000 130 255 0 0.000000
387958.879999 3551521.910004 -2.430000 0 252 2 0.000000
387955.721001 3551522.069000 -6.430000 0 97 157 0.000000
387956.840000 3551522.028999 -5.500000 0 133 121 0.000000
387957.910999 3551521.528999 -2.520000 0 249 5 0.000000
387958.910999 3551521.660004 -2.419001 0 252 2 0.000000
387956.879999 3551521.778999 -5.650000 0 127 127 0.000000
387957.950001 3551521.959000 -5.700001 0 125 129 0.000000
387958.959999 3551521.410004 -2.450001 0 252 2 0.000000
387956.920000 3551521.550003 -5.849001 0 119 135 0.000000
387957.990000 3551521.410004 -4.400000 0 175 79 0.000000
387958.030001 3551521.220001 -4.790001 0 160 94 0.000000
387958.080999 3551521.058998 -5.340000 0 139 115 0.000000
387958.121000 3551520.819000 -5.438999 0 135 119 0.000000
387957.809999 3551524.838997 4.650999 255 237 0 0.000000
387958.761000 3551526.098999 1.561001 152 255 0 0.000000
387957.840000 3551524.750000 4.260000 255 252 0 0.000000
387958.791000 3551525.860001 1.530001 151 255 0 0.000000
387957.871000 3551524.120003 5.410000 255 207 0 0.000000
387958.770000 3551524.918999 3.500000 228 255 0 0.000000
387956.981001 3551525.088997 1.510000 150 255 0 0.000000
387957.910999 3551523.848999 5.561001 255 201 0 0.000000
387958.791000 3551524.470001 4.131001 252 255 0 0.000000
387957.011000 3551524.930000 1.250000 140 255 0 0.000000
387957.941000 3551523.610001 5.631001 255 199 0 0.000000
387958.780001 3551523.848999 5.280001 255 213 0 0.000000
387957.100000 3551523.930000 3.561001 230 255 0 0.000000
387957.971001 3551523.410004 5.561001 255 201 0 0.000000
387958.820000 3551523.650002 5.190001 255 216 0 0.000000
387957.129999 3551523.750000 3.400999 223 255 0 0.000000
387958.011000 3551523.348999 5.049999 255 222 0 0.000000
387957.121000 3551524.389000 0.639999 116 255 0 0.000000
387958.041000 3551523.058998 5.280001 255 213 0 0.000000
387958.900999 3551523.470001 4.410000 255 246 0 0.000000
387959.900999 3551524.338997 2.100000 173 255 0 0.000000
387957.200001 3551523.230003 3.611000 231 255 0 0.000000
387958.080999 3551523.050003 4.611000 255 239 0 0.000000
387958.941000 3551523.268997 4.311001 255 250 0 0.000000
387959.931000 3551524.120003 2.061001 171 255 0 0.000000
387957.221001 3551523.440002 2.150999 174 255 0 0.000000
387958.111000 3551522.860001 4.530001 255 242 0 0.000000
387958.971001 3551523.018997 4.400999 255 247 0 0.000000
387959.871000 3551523.360001 3.750000 237 255 0 0.000000
387957.280001 3551522.698997 3.881001 242 255 0 0.000000
387958.150999 3551522.709000 4.280001 255 252 0 0.000000
387959.020000 3551523.000000 3.730000 237 255 0 0.000000
387956.350000 3551523.128998 1.091000 133 255 0 0.000000
387957.309999 3551522.440002 3.990999 246 255 0 0.000000
387958.181000 3551522.448997 4.410000 255 246 0 0.000000
387959.059999 3551522.830002 3.530001 228 255 0 0.000000
387956.389999 3551522.860001 1.209999 139 255 0 0.000000
387957.350000 3551522.290001 3.721001 236 255 0 0.000000
387958.209999 3551522.238998 4.350000 255 249 0 0.000000
387959.090000 3551522.580002 3.639999 233 255 0 0.000000
387957.371000 3551522.400002 2.500000 189 255 0 0.000000
387958.270000 3551522.639000 2.120001 174 255 0 0.000000
387959.160999 3551522.588997 2.780001 199 255 0 0.000000
387960.041000 3551522.660004 3.010000 208 255 0 0.000000
387956.441000 3551522.580002 0.490999 110 255 0 0.000000
387957.400999 3551522.198997 2.410000 185 255 0 0.000000
387958.309999 3551522.370003 2.260000 179 255 0 0.000000
387959.200001 3551522.480003 2.381001 183 255 0 0.000000
387956.481001 3551522.338997 0.480000 110 255 0 0.000000
387957.431000 3551522.150002 1.730000 159 255 0 0.000000
387958.340000 3551522.168999 2.150999 174 255 0 0.000000
387959.240000 3551522.238998 2.410000 185 255 0 0.000000
387957.471001 3551521.930000 1.670000 157 255 0 0.000000
387958.371000 3551521.838997 2.549999 190 255 0 0.000000
387959.270000 3551522.028999 2.320000 181 255 0 0.000000
387957.500000 3551522.018997 0.361000 106 255 0 0.000000
387958.410999 3551521.668999 2.311001 181 255 0 0.000000
387959.340000 3551521.980003 1.600000 154 255 0 0.000000
387957.530001 3551521.808998 0.250000 101 255 0 0.000000
387958.459999 3551521.660004 1.440001 148 255 0 0.000000
387959.371000 3551521.730003 1.670000 157 255 0 0.000000
387957.580999 3551521.330002 1.260000 140 255 0 0.000000
387958.500000 3551521.459000 1.291000 142 255 0 0.000000
387959.431000 3551521.668999 1.010000 130 255 0 0.000000
387957.611000 3551521.110001 1.190001 138 255 0 0.000000
387958.541000 3551521.319000 0.900999 127 255 0 0.000000
387959.551001 3551521.918999 -1.059999 50 255 0 0.000000
387957.639999 3551521.709000 -2.459000 0 251 3 0.000000
387958.570000 3551521.028999 1.139999 136 255 0 0.000000
387959.590000 3551521.660004 -0.959000 54 255 0 0.000000
387956.600000 3551522.040001 -5.868999 0 118 136 0.000000
387957.681000 3551521.459000 -2.500000 0 249 5 0.000000
387958.691000 3551521.598999 -2.450001 0 252 2 0.000000
387959.621000 3551521.410004 -0.959000 54 255 0 0.000000
387957.721001 3551521.900002 -5.770000 0 122 132 0.000000
387958.731001 3551521.338997 -2.438999 0 252 2 0.000000
387957.761000 3551521.459000 -4.959000 0 154 100 0.000000
387958.761000 3551521.040001 -2.229000 5 255 0 0.000000
387957.801001 3551521.209000 -5.059999 0 150 104 0.000000
387958.801001 3551520.800003 -2.278999 2 255 0 0.000000
387957.850000 3551520.889000 -4.790001 0 160 94 0.000000
387958.931000 3551521.278999 -5.909000 0 117 137 0.000000
387957.889999 3551520.830002 -5.819000 0 121 133 0.000000
387958.981001 3551521.050003 -6.130001 0 109 145 0.000000
387957.580999 3551525.110001 3.750000 237 255 0 0.000000
387957.611000 3551524.930000 3.620001 232 255 0 0.000000
387958.490000 3551524.889000 4.100000 251 255 0 0.000000
387956.709999 3551525.238998 1.650999 156 255 0 0.000000
387957.650999 3551524.180000 5.100000 255 219 0 0.000000
387958.520000 3551524.668999 4.061001 249 255 0 0.000000
387956.750000 3551525.018997 1.570000 152 255 0 0.000000
387958.570000 3551524.540001 3.760000 237 255 0 0.000000
387959.490000 3551524.910004 3.070000 210 255 0 0.000000
387956.780001 3551524.900002 1.170000 137 255 0 0.000000
387957.709999 3551523.620003 5.410000 255 207 0 0.000000
387958.570000 3551523.948997 4.799999 255 231 0 0.000000
387959.541000 3551524.800003 2.709999 197 255 0 0.000000
387956.861000 3551523.918999 3.440001 225 255 0 0.000000
387957.740000 3551523.308998 5.690001 255 197 0 0.000000
387958.590000 3551523.628998 5.100000 255 219 0 0.000000
387959.459999 3551523.878998 4.740999 255 234 0 0.000000
387956.889999 3551523.730003 3.320000 220 255 0 0.000000
387957.770000 3551523.098999 5.681000 255 197 0 0.000000
387958.621000 3551523.410004 5.120001 255 219 0 0.000000
387959.621000 3551524.448997 2.350000 183 255 0 0.000000
387956.879999 3551524.348999 0.600000 115 255 0 0.000000
387957.809999 3551522.959000 5.440001 255 207 0 0.000000
387958.660999 3551523.220001 5.021000 255 223 0 0.000000
387959.551001 3551523.628998 4.150999 252 255 0 0.000000
387956.941000 3551523.660004 2.021000 170 255 0 0.000000
387957.840000 3551522.768997 5.330999 255 210 0 0.000000
387958.721001 3551523.278999 4.111000 251 255 0 0.000000
387956.981001 3551523.488998 1.799999 161 255 0 0.000000
387957.879999 3551522.698997 4.830999 255 230 0 0.000000
387958.740000 3551522.970001 4.381001 255 248 0 0.000000
387959.629999 3551523.260002 3.861000 241 255 0 0.000000
387956.080999 3551523.238998 1.350000 144 255 0 0.000000
387957.041000 3551522.870003 3.100000 212 255 0 0.000000
387957.910999 3551522.470001 4.870001 255 228 0 0.000000
387958.801001 3551523.040001 3.431000 225 255 0 0.000000
387959.691000 3551523.180000 3.410000 224 255 0 0.000000
387956.121000 3551523.050003 1.190001 138 255 0 0.000000
387957.070000 3551522.660004 3.021000 209 255 0 0.000000
387957.950001 3551522.418999 4.291000 255 251 0 0.000000
387958.830999 3551522.790001 3.500000 228 255 0 0.000000
387959.750000 3551523.120003 2.811001 201 255 0 0.000000
387956.150999 3551522.889000 0.889999 126 255 0 0.000000
387957.100000 3551522.598999 2.410000 185 255 0 0.000000
387958.000000 3551522.730003 2.451000 186 255 0 0.000000
387958.861000 3551522.550003 3.521000 228 255 0 0.000000
387959.780001 3551522.870003 2.881001 203 255 0 0.000000
387956.181000 3551522.668999 0.811001 123 255 0 0.000000
387957.129999 3551522.418999 2.240999 178 255 0 0.000000
387958.041000 3551522.510002 2.389999 184 255 0 0.000000
387958.920000 3551522.540001 2.780001 199 255 0 0.000000
387959.809999 3551522.639000 2.889999 204 255 0 0.000000
387957.160999 3551522.330002 1.709999 158 255 0 0.000000
387958.121000 3551523.330002 -1.469999 35 255 0 0.000000
387958.981001 3551522.480003 2.170000 176 255 0 0.000000
387956.250000 3551522.268997 0.480000 110 255 0 0.000000
387957.200001 3551522.018997 1.990999 169 255 0 0.000000
387958.121000 3551522.190002 1.861000 163 255 0 0.000000
387958.981001 3551522.010002 3.041000 210 255 0 0.000000
387960.030001 3551522.860001 0.400999 107 255 0 0.000000
387957.240000 3551521.819000 1.861000 163 255 0 0.000000
387958.150999 3551521.878998 2.139999 174 255 0 0.000000
387959.030001 3551521.918999 2.530001 189 255 0 0.000000
387960.070000 3551522.650002 0.280001 102 255 0 0.000000
387957.261000 3551522.028999 0.100000 95 255 0 0.000000
387958.181000 3551521.569000 2.451000 186 255 0 0.000000
387959.111000 3551521.959000 1.459999 148 255 0 0.000000
387960.041000 3551522.139000 1.311001 142 255 0 0.000000
387957.270000 3551522.660004 -3.450001 0 213 41 0.000000
387958.231001 3551521.628998 1.311001 142 255 0 0.000000
387959.160999 3551521.819000 1.111000 134 255 0 0.000000
387960.059999 3551521.878998 1.420000 147 255 0 0.000000
387957.320000 3551522.058998 -2.040001 12 255 0 0.000000
387958.280001 3551521.528999 0.760000 121 255 0 0.000000
387959.200001 3551521.620003 0.971001 129 255 0 0.000000
387957.379999 3551521.018997 1.330999 143 255 0 0.000000
387958.309999 3551521.220001 1.030001 131 255 0 0.000000
387959.309999 3551521.808998 -0.840000 59 255 0 0.000000
387956.291000 3551522.389000 -6.438999 0 97 157 0.000000
387957.420000 3551520.800003 1.260000 140 255 0 0.000000
387958.340000 3551520.930000 1.299999 142 255 0 0.000000
387959.350000 3551521.598999 -0.990000 53 255 0 0.000000
387956.361000 3551521.918999 -5.590000 0 130 124 0.000000
387957.431000 3551522.120003 -5.790001 0 121 133 0.000000
387958.450001 3551521.580002 -2.639000 0 244 10 0.000000
387959.371000 3551521.260002 -0.580000 69 255 0 0.000000
387957.471001 3551521.848999 -5.819000 0 121 133 0.000000
387958.490000 3551521.278999 -2.430000 0 252 2 0.000000
387958.520000 3551520.970001 -2.200001 6 255 0 0.000000
387958.559999 3551520.738998 -2.330000 1 255 0 0.000000
387958.691000 3551521.238998 -6.049000 0 112 142 0.000000
387958.740000 3551520.988998 -6.139000 0 108 146 0.000000
387957.361000 3551524.360001 5.010000 255 223 0 0.000000
387959.129999 3551525.028999 3.870001 242 255 0 0.000000
387957.400999 3551524.838997 3.000000 208 255 0 0.000000
387958.261000 3551524.459000 4.451000 255 245 0 0.000000
387959.170000 3551524.878998 3.650999 233 255 0 0.000000
387957.431000 3551524.058998 4.570000 255 240 0 0.000000
387958.270000 3551523.910004 5.400999 255 208 0 0.000000
387956.490000 3551525.238998 -0.040001 90 255 0 0.000000
387957.459999 3551523.830002 4.580999 255 240 0 0.000000
387958.301001 3551523.690002 5.389999 255 208 0 0.000000
387959.170000 3551524.000000 4.830999 255 230 0 0.000000
387956.530001 3551525.000000 -0.069000 88 255 0 0.000000
387957.490000 3551523.400002 5.221001 255 215 0 0.000000
387959.200001 3551523.790001 4.820000 255 231 0 0.000000
387956.590000 3551524.500000 0.660000 117 255 0 0.000000
387957.530001 3551523.150002 5.311001 255 211 0 0.000000
387958.389999 3551523.500000 4.620001 255 238 0 0.000000
387959.261000 3551523.720001 4.320000 255 250 0 0.000000
387956.629999 3551524.268997 0.631001 116 255 0 0.000000
387957.559999 3551523.050003 4.931000 255 226 0 0.000000
387958.420000 3551523.250000 4.690001 255 236 0 0.000000
387959.420000 3551524.308998 1.820000 162 255 0 0.000000
387956.681000 3551523.738998 1.549999 151 255 0 0.000000
387957.590000 3551522.878998 4.780001 255 232 0 0.000000
387958.441000 3551522.948997 4.951000 255 225 0 0.000000
387959.320000 3551523.278999 4.311001 255 250 0 0.000000
387956.721001 3551523.510002 1.521000 151 255 0 0.000000
387957.629999 3551522.558998 5.111000 255 219 0 0.000000
387958.520000 3551523.198997 3.431000 225 255 0 0.000000
387959.371000 3551523.150002 3.990999 246 255 0 0.000000
387955.820000 3551523.198997 1.260000 140 255 0 0.000000
387956.731001 3551523.709000 0.021000 92 255 0 0.000000
387957.660999 3551522.440002 4.780001 255 232 0 0.000000
387958.541000 3551522.870003 3.750000 237 255 0 0.000000
387959.420000 3551523.010002 3.709999 235 255 0 0.000000
387956.801001 3551522.930000 1.870001 164 255 0 0.000000
387957.691000 3551522.238998 4.690001 255 236 0 0.000000
387958.551001 3551522.480003 4.299999 255 251 0 0.000000
387959.431000 3551522.709000 3.971001 246 255 0 0.000000
387956.830999 3551522.698997 1.820000 162 255 0 0.000000
387957.740000 3551522.518997 2.959999 207 255 0 0.000000
387958.611000 3551522.440002 3.681000 234 255 0 0.000000
387955.879999 3551522.918999 -0.330000 79 255 0 0.000000
387956.861000 3551522.680000 1.070000 133 255 0 0.000000
387957.770000 3551522.139000 3.510000 228 255 0 0.000000
387958.639999 3551522.260002 3.521000 228 255 0 0.000000
387955.910999 3551522.730003 -0.549000 70 255 0 0.000000
387956.900999 3551522.488998 0.881001 126 255 0 0.000000
387957.809999 3551521.959000 3.320000 220 255 0 0.000000
387958.700001 3551522.220001 2.881001 203 255 0 0.000000
387959.650999 3551522.660004 1.771000 160 255 0 0.000000
387955.990000 3551522.220001 0.451000 109 255 0 0.000000
387956.950001 3551521.930000 2.111000 173 255 0 0.000000
387957.861000 3551522.150002 1.780001 160 255 0 0.000000
387958.721001 3551521.889000 3.230000 217 255 0 0.000000
387959.691000 3551522.448997 1.670000 157 255 0 0.000000
387956.981001 3551521.730003 1.971001 168 255 0 0.000000
387957.900999 3551522.000000 1.431000 147 255 0 0.000000
387958.761000 3551521.730003 3.000000 208 255 0 0.000000
387959.691000 3551522.050003 2.291000 180 255 0 0.000000
387957.011000 3551521.819000 0.660000 117 255 0 0.000000
387957.941000 3551521.778999 1.370001 145 255 0 0.000000
387958.830999 3551521.730003 2.100000 173 255 0 0.000000
387959.791000 3551522.128998 1.091000 133 255 0 0.000000
387957.971001 3551521.528999 1.451000 148 255 0 0.000000
387958.879999 3551521.660004 1.471001 148 255 0 0.000000
387959.809999 3551521.808998 1.400999 146 255 0 0.000000
387958.020000 3551521.510002 0.580999 114 255 0 0.000000
387958.931000 3551521.518997 1.091000 133 255 0 0.000000
387959.879999 3551521.760002 0.701000 118 255 0 0.000000
387957.070000 3551522.610001 -5.778999 0 122 132 0.000000
387958.051001 3551521.139000 1.100000 134 255 0 0.000000
387959.030001 3551521.650002 -0.459000 74 255 0 0.000000
387956.020000 3551522.330002 -6.500000 0 94 160 0.000000
387957.121000 3551522.278999 -5.580000 0 130 124 0.000000
387958.090000 3551521.018997 0.631001 116 255 0 0.000000
387959.090000 3551521.550003 -1.040001 51 255 0 0.000000
387957.160999 3551522.040001 -5.719999 0 124 130 0.000000
387958.250000 3551522.300003 -6.150002 0 108 146 0.000000
387957.200001 3551521.830002 -5.990000 0 114 140 0.000000
387958.291000 3551521.940002 -5.759001 0 123 131 0.000000
387958.320000 3551521.569000 -5.319000 0 140 114 0.000000
387958.361000 3551521.238998 -5.040001 0 151 103 0.000000
387958.410999 3551521.110001 -5.770000 0 122 132 0.000000
387958.459999 3551520.889000 -6.020000 0 112 142 0.000000
387958.920000 3551526.250000 1.799999 161 255 0 0.000000
387957.950001 3551524.848999 4.580999 255 240 0 0.000000
387958.950001 3551526.010002 1.791000 161 255 0 0.000000
387957.111000 3551525.120003 2.799999 200 255 0 0.000000
387957.990000 3551524.660004 4.451000 255 245 0 0.000000
387958.950001 3551525.480003 2.549999 190 255 0 0.000000
387957.150999 3551524.808998 3.010000 208 255 0 0.000000
387958.020000 3551524.470001 4.350000 255 249 0 0.000000
387958.931000 3551524.870003 3.591000 231 255 0 0.000000
387957.181000 3551524.660004 2.740999 198 255 0 0.000000
387958.020000 3551523.720001 5.850000 255 190 0 0.000000
387958.959999 3551524.628998 3.620001 232 255 0 0.000000
387956.240000 3551525.250000 -0.139000 86 255 0 0.000000
387957.221001 3551525.040001 0.920000 127 255 0 0.000000
387958.051001 3551523.540001 5.760000 255 194 0 0.000000
387958.910999 3551523.848999 5.209999 255 216 0 0.000000
387957.250000 3551523.980003 3.389999 223 255 0 0.000000
387958.090000 3551523.389000 5.541000 255 203 0 0.000000
387957.291000 3551523.760002 3.330999 221 255 0 0.000000
387958.129999 3551523.268997 5.240999 255 214 0 0.000000
387958.981001 3551523.480003 4.990999 255 224 0 0.000000
387957.320000 3551522.959000 5.120001 255 219 0 0.000000
387958.150999 3551523.018997 5.320000 255 211 0 0.000000
387959.139999 3551524.069000 2.471001 187 255 0 0.000000
387956.431000 3551523.730003 1.480000 149 255 0 0.000000
387957.350000 3551523.028999 4.190001 254 255 0 0.000000
387958.191000 3551522.900002 5.000000 255 224 0 0.000000
387959.200001 3551523.980003 2.021000 170 255 0 0.000000
387957.400999 3551523.389000 2.291000 180 255 0 0.000000
387958.231001 3551522.760002 4.771000 255 232 0 0.000000
387959.129999 3551523.160004 3.900999 243 255 0 0.000000
387956.481001 3551523.698997 -0.009001 91 255 0 0.000000
387957.420000 3551522.720001 3.760000 237 255 0 0.000000
387958.280001 3551522.720001 4.170000 253 255 0 0.000000
387959.170000 3551523.000000 3.670000 234 255 0 0.000000
387956.541000 3551523.120003 1.139999 136 255 0 0.000000
387957.450001 3551522.448997 3.889999 243 255 0 0.000000
387958.301001 3551522.418999 4.431000 255 246 0 0.000000
387959.209999 3551522.808998 3.561001 230 255 0 0.000000
387956.580999 3551522.838997 1.240999 139 255 0 0.000000
387957.490000 3551522.348999 3.459999 225 255 0 0.000000
387958.350000 3551522.290001 4.131001 252 255 0 0.000000
387956.611000 3551522.620003 1.181000 137 255 0 0.000000
387957.530001 3551522.120003 3.440001 225 255 0 0.000000
387958.459999 3551522.790001 1.561001 152 255 0 0.000000
387959.320000 3551522.620003 2.639999 194 255 0 0.000000
387956.639999 3551522.580002 0.440001 109 255 0 0.000000
387957.570000 3551522.260002 2.111000 173 255 0 0.000000
387958.459999 3551522.220001 2.730000 198 255 0 0.000000
387959.379999 3551522.500000 2.209999 177 255 0 0.000000
387956.681000 3551522.330002 0.480000 110 255 0 0.000000
387957.611000 3551522.110001 1.820000 162 255 0 0.000000
387958.500000 3551522.088997 2.400999 184 255 0 0.000000
387959.400999 3551522.220001 2.389999 184 255 0 0.000000
387956.721001 3551521.900002 1.190001 138 255 0 0.000000
387957.660999 3551522.250000 0.400999 107 255 0 0.000000
387959.441000 3551522.050003 2.181000 176 255 0 0.000000
387956.761000 3551521.720001 1.000000 130 255 0 0.000000
387957.700001 3551521.988998 0.471001 109 255 0 0.000000
387958.580999 3551521.698997 2.111000 173 255 0 0.000000
387959.500000 3551521.930000 1.771000 160 255 0 0.000000
387957.731001 3551521.709000 0.611000 115 255 0 0.000000
387958.650999 3551521.730003 1.100000 134 255 0 0.000000
387959.530001 3551521.690002 1.771000 160 255 0 0.000000
387957.761000 3551521.378998 0.971001 129 255 0 0.000000
387958.681000 3551521.480003 1.150999 136 255 0 0.000000
387959.761000 3551522.238998 -1.349001 39 255 0 0.000000
387957.801001 3551521.160004 0.931000 127 255 0 0.000000
387958.861000 3551522.120003 -2.520000 0 249 5 0.000000
387959.660999 3551521.448997 0.870001 125 255 0 0.000000
387956.861000 3551522.180000 -5.229000 0 143 111 0.000000
387957.889999 3551521.709000 -2.500000 0 249 5 0.000000
387958.889999 3551521.848999 -2.438999 0 252 2 0.000000
387956.900999 3551521.988998 -5.618999 0 128 126 0.000000
387957.931000 3551521.470001 -2.590000 0 246 8 0.000000
387958.931000 3551521.569000 -2.340000 0 255 0 0.000000
387956.941000 3551521.800003 -5.990000 0 114 140 0.000000
387958.020000 3551521.889000 -5.669001 0 126 128 0.000000
387958.971001 3551521.330002 -2.400000 0 253 1 0.000000
387958.041000 3551521.348999 -4.409000 0 175 79 0.000000
387958.100000 3551521.238998 -5.159000 0 146 108 0.000000
387958.139999 3551521.010002 -5.368999 0 138 116 0.000000
387958.191000 3551520.760002 -5.479000 0 133 121 0.000000
387957.681000 3551525.139000 3.811001 240 255 0 0.000000
387957.709999 3551524.800003 4.080999 250 255 0 0.000000
387957.721001 3551524.128998 5.311001 255 211 0 0.000000
387958.621000 3551524.720001 4.010000 247 255 0 0.000000
387956.889999 3551525.058998 1.600000 154 255 0 0.000000
387957.750000 3551523.870003 5.420000 255 207 0 0.000000
387958.660999 3551524.540001 3.870001 242 255 0 0.000000
387956.931000 3551524.168999 3.530001 228 255 0 0.000000
387957.770000 3551523.628998 5.480000 255 205 0 0.000000
387958.639999 3551523.918999 5.010000 255 223 0 0.000000
387956.959999 3551523.930000 3.561001 230 255 0 0.000000
387957.801001 3551523.378998 5.570000 255 201 0 0.000000
387958.660999 3551523.660004 5.131001 255 219 0 0.000000
387959.709999 3551524.680000 2.510000 189 255 0 0.000000
387957.000000 3551523.778999 3.299999 219 255 0 0.000000
387957.830999 3551523.150002 5.611000 255 200 0 0.000000
387958.709999 3551523.580002 4.690001 255 236 0 0.000000
387957.030001 3551524.338997 0.799999 122 255 0 0.000000
387957.871000 3551522.980003 5.451000 255 206 0 0.000000
387958.731001 3551523.278999 4.889999 255 228 0 0.000000
387959.801001 3551524.338997 2.080999 172 255 0 0.000000
387957.070000 3551523.250000 3.480000 227 255 0 0.000000
387957.910999 3551522.878998 5.100000 255 219 0 0.000000
387958.791000 3551523.268997 4.260000 255 252 0 0.000000
387959.840000 3551524.160004 1.900999 166 255 0 0.000000
387957.100000 3551523.540001 1.830999 163 255 0 0.000000
387957.950001 3551522.800003 4.660000 255 237 0 0.000000
387959.750000 3551523.378998 3.600000 231 255 0 0.000000
387956.200001 3551523.378998 1.091000 133 255 0 0.000000
387957.139999 3551522.878998 3.201000 216 255 0 0.000000
387957.981001 3551522.500000 4.900999 255 228 0 0.000000
387958.889999 3551523.040001 3.541000 229 255 0 0.000000
387959.791000 3551523.220001 3.400999 223 255 0 0.000000
387956.240000 3551523.098999 1.230000 139 255 0 0.000000
387957.170000 3551522.488998 3.760000 237 255 0 0.000000
387958.020000 3551522.440002 4.361000 255 249 0 0.000000
387958.920000 3551522.830002 3.500000 228 255 0 0.000000
387959.871000 3551523.198997 2.721001 197 255 0 0.000000
387956.280001 3551522.930000 0.951000 128 255 0 0.000000
387957.200001 3551522.308998 3.591000 231 255 0 0.000000
387958.059999 3551522.260002 4.190001 254 255 0 0.000000
387958.950001 3551522.588997 3.510000 228 255 0 0.000000
387959.910999 3551522.988998 2.611000 192 255 0 0.000000
387956.309999 3551522.668999 1.010000 130 255 0 0.000000
387957.240000 3551522.448997 2.299999 180 255 0 0.000000
387958.160999 3551522.680000 1.940001 167 255 0 0.000000
387958.990000 3551522.378998 3.480000 227 255 0 0.000000
387959.910999 3551522.639000 3.000000 208 255 0 0.000000
387956.340000 3551522.558998 0.541000 112 255 0 0.000000
387957.280001 3551522.370003 1.771000 160 255 0 0.000000
387958.181000 3551522.378998 2.190001 177 255 0 0.000000
387959.080999 3551522.470001 2.350000 183 255 0 0.000000
387956.379999 3551522.338997 0.459999 109 255 0 0.000000
387957.320000 3551522.128998 1.760000 160 255 0 0.000000
387958.240000 3551522.330002 1.530001 151 255 0 0.000000
387959.111000 3551522.238998 2.311001 181 255 0 0.000000
387956.420000 3551522.139000 0.291000 103 255 0 0.000000
387957.350000 3551521.889000 1.791000 161 255 0 0.000000
387958.240000 3551521.860001 2.381001 183 255 0 0.000000
387959.139999 3551521.959000 2.510000 189 255 0 0.000000
387956.450001 3551522.040001 -0.290001 80 255 0 0.000000
387957.400999 3551522.058998 0.201000 99 255 0 0.000000
387958.270000 3551521.610001 2.459999 187 255 0 0.000000
387959.181000 3551521.768997 2.350000 183 255 0 0.000000
387957.481001 3551522.730003 -3.459000 0 212 42 0.000000
387958.309999 3551521.430000 2.271000 180 255 0 0.000000
387959.280001 3551521.870003 1.100000 134 255 0 0.000000
387957.471001 3551521.410004 0.870001 125 255 0 0.000000
387958.379999 3551521.440002 1.299999 142 255 0 0.000000
387959.320000 3551521.650002 1.030001 131 255 0 0.000000
387957.500000 3551521.088997 1.230000 139 255 0 0.000000
387958.431000 3551521.330002 0.811001 123 255 0 0.000000
387959.481001 3551521.948997 -1.150000 47 255 0 0.000000
387956.530001 3551522.500000 -6.569000 0 91 163 0.000000
387957.541000 3551520.870003 1.170000 137 255 0 0.000000
387958.450001 3551520.980003 1.280001 141 255 0 0.000000
387959.490000 3551521.598999 -0.729000 63 255 0 0.000000
387956.580999 3551522.050003 -5.799000 0 121 133 0.000000
387957.629999 3551521.480003 -2.559999 0 247 7 0.000000
387958.490000 3551520.768997 1.170000 137 255 0 0.000000
387959.541000 3551521.400002 -0.959000 54 255 0 0.000000
387957.709999 3551521.930000 -5.770000 0 122 132 0.000000
387958.670000 3551521.360001 -2.500000 0 249 5 0.000000
387957.740000 3551521.480003 -4.950001 0 154 100 0.000000
387958.691000 3551521.050003 -2.219999 5 255 0 0.000000
387957.780001 3551521.230003 -5.028999 0 151 103 0.000000
387958.731001 3551520.800003 -2.250000 4 255 0 0.000000
387958.920000 3551521.278999 -5.830000 0 120 134 0.000000
387957.879999 3551520.830002 -5.778999 0 122 132 0.000000
387958.971001 3551521.069000 -6.150002 0 108 146 0.000000
387957.481001 3551524.290001 5.160000 255 217 0 0.000000
387958.379999 3551524.808998 4.061001 249 255 0 0.000000
387956.639999 3551525.198997 1.541000 151 255 0 0.000000
387957.511000 3551524.150002 4.931000 255 226 0 0.000000
387958.400999 3551524.510002 4.271000 255 252 0 0.000000
387959.371000 3551525.088997 3.021000 209 255 0 0.000000
387956.681000 3551524.980003 1.471001 148 255 0 0.000000
387957.580999 3551524.588997 3.000000 208 255 0 0.000000
387958.420000 3551524.198997 4.500000 255 243 0 0.000000
387959.410999 3551524.889000 2.910000 204 255 0 0.000000
387956.709999 3551524.889000 1.010000 130 255 0 0.000000
387957.629999 3551524.540001 2.431000 186 255 0 0.000000
387958.441000 3551523.870003 4.791000 255 231 0 0.000000
387959.301001 3551523.988998 4.811001 255 231 0 0.000000
387956.750000 3551524.940002 0.111000 96 255 0 0.000000
387957.590000 3551523.230003 5.670000 255 198 0 0.000000
387958.441000 3551523.440002 5.400999 255 208 0 0.000000
387959.340000 3551523.819000 4.660000 255 237 0 0.000000
387956.780001 3551524.580002 0.431000 108 255 0 0.000000
387957.629999 3551523.080002 5.459999 255 206 0 0.000000
387958.490000 3551523.378998 4.900999 255 228 0 0.000000
387956.820000 3551524.278999 0.591000 114 255 0 0.000000
387957.670000 3551523.010002 5.000000 255 224 0 0.000000
387958.530001 3551523.230003 4.701000 255 235 0 0.000000
387959.431000 3551523.518997 4.221001 255 254 0 0.000000
387956.861000 3551523.720001 1.600000 154 255 0 0.000000
387957.700001 3551522.808998 4.940001 255 226 0 0.000000
387958.559999 3551523.018997 4.650999 255 237 0 0.000000
387959.459999 3551523.290001 4.221001 255 254 0 0.000000
387956.889999 3551523.459000 1.660000 156 255 0 0.000000
387957.731001 3551522.518997 5.160000 255 217 0 0.000000
387958.650999 3551523.150002 3.541000 229 255 0 0.000000
387959.520000 3551523.180000 3.841000 240 255 0 0.000000
387956.000000 3551523.180000 1.330999 143 255 0 0.000000
387956.931000 3551523.150002 1.881001 164 255 0 0.000000
387957.770000 3551522.480003 4.591000 255 240 0 0.000000
387958.681000 3551522.900002 3.620001 232 255 0 0.000000
387959.629999 3551523.290001 2.760000 198 255 0 0.000000
387956.030001 3551522.970001 1.240999 139 255 0 0.000000
387956.971001 3551523.050003 1.420000 147 255 0 0.000000
387957.801001 3551522.220001 4.690001 255 236 0 0.000000
387958.721001 3551522.720001 3.440001 225 255 0 0.000000
387959.611000 3551522.889000 3.330999 221 255 0 0.000000
387956.041000 3551523.128998 -0.219999 83 255 0 0.000000
387957.000000 3551522.598999 2.160000 175 255 0 0.000000
387957.871000 3551522.360001 3.459999 225 255 0 0.000000
387958.750000 3551522.488998 3.440001 225 255 0 0.000000
387956.080999 3551522.819000 0.030001 92 255 0 0.000000
387957.041000 3551522.680000 1.041000 132 255 0 0.000000
387957.900999 3551522.150002 3.420000 224 255 0 0.000000
387958.820000 3551522.470001 2.721001 197 255 0 0.000000
387959.709999 3551522.569000 2.850000 202 255 0 0.000000
387956.129999 3551522.448997 0.480000 110 255 0 0.000000
387957.070000 3551522.198997 1.920000 166 255 0 0.000000
387957.981001 3551522.348999 1.841000 163 255 0 0.000000
387958.840000 3551522.220001 2.780001 199 255 0 0.000000
387959.830999 3551522.660004 1.709999 158 255 0 0.000000
387956.170000 3551522.238998 0.370001 106 255 0 0.000000
387957.100000 3551521.930000 2.041000 171 255 0 0.000000
387958.020000 3551522.160004 1.690001 157 255 0 0.000000
387958.850000 3551521.870003 3.240999 217 255 0 0.000000
387959.861000 3551522.448997 1.660000 156 255 0 0.000000
387957.150999 3551522.058998 0.639999 116 255 0 0.000000
387958.059999 3551521.959000 1.561001 152 255 0 0.000000
387958.889999 3551521.668999 3.139999 213 255 0 0.000000
387959.941000 3551522.348999 1.120001 135 255 0 0.000000
387957.191000 3551521.948997 0.139999 97 255 0 0.000000
387959.011000 3551521.870003 1.541000 151 255 0 0.000000
387959.950001 3551522.058998 1.320000 142 255 0 0.000000
387958.160999 3551521.720001 0.660000 117 255 0 0.000000
387959.051001 3551521.668999 1.389999 145 255 0 0.000000
387959.971001 3551521.778999 1.471001 148 255 0 0.000000
387957.291000 3551522.000000 -2.040001 12 255 0 0.000000
387958.191000 3551521.488998 0.639999 116 255 0 0.000000
387959.221001 3551522.040001 -1.028999 51 255 0 0.000000
387956.270000 3551522.598999 -6.360001 0 100 154 0.000000
387957.291000 3551520.970001 1.209999 139 255 0 0.000000
387958.221001 3551521.209000 0.791000 122 255 0 0.000000
387959.250000 3551521.768997 -0.930000 56 255 0 0.000000
387956.320000 3551522.338997 -6.450001 0 96 158 0.000000
387957.410999 3551522.319000 -5.669001 0 126 128 0.000000
387958.250000 3551520.910004 1.061001 133 255 0 0.000000
387959.291000 3551521.510002 -0.889000 57 255 0 0.000000
387956.371000 3551521.878998 -5.599001 0 129 125 0.000000
387957.459999 3551522.110001 -5.950001 0 115 139 0.000000
387958.541000 3551522.250000 -5.849001 0 119 135 0.000000
387959.301001 3551521.190002 -0.580000 69 255 0 0.000000
387956.410999 3551521.698997 -6.090000 0 110 144 0.000000
387957.420000 3551520.660004 -0.559999 70 255 0 0.000000
387958.450001 3551521.209000 -2.400000 0 253 1 0.000000
387958.481001 3551520.910004 -2.219999 5 255 0 0.000000
387958.520000 3551520.690002 -2.360001 0 255 0 0.000000
387958.709999 3551521.190002 -6.060001 0 111 143 0.000000
387958.750000 3551520.930000 -6.110001 0 109 145 0.000000
387958.170000 3551524.610001 4.530001 255 242 0 0.000000
387959.090000 3551524.980003 3.861000 241 255 0 0.000000
387957.361000 3551524.768997 3.049999 210 255 0 0.000000
387958.200001 3551524.378998 4.521000 255 242 0 0.000000
387959.139999 3551524.819000 3.660000 234 255 0 0.000000
387957.361000 3551523.959000 4.701000 255 235 0 0.000000
387958.170000 3551523.698997 5.811001 255 192 0 0.000000
387959.191000 3551524.720001 3.271000 219 255 0 0.000000
387956.520000 3551525.198997 -0.049000 89 255 0 0.000000
387957.490000 3551525.319000 0.041000 93 255 0 0.000000
387958.221001 3551523.588997 5.490999 255 204 0 0.000000
387959.129999 3551524.018997 4.611000 255 239 0 0.000000
387956.559999 3551524.959000 -0.080000 88 255 0 0.000000
387957.410999 3551523.330002 5.240999 255 214 0 0.000000
387958.240000 3551523.330002 5.600000 255 200 0 0.000000
387959.150999 3551523.730003 4.791000 255 231 0 0.000000
387956.600000 3551524.480003 0.631001 116 255 0 0.000000
387958.320000 3551523.459000 4.561001 255 240 0 0.000000
387959.200001 3551523.639000 4.420000 255 246 0 0.000000
387956.629999 3551523.980003 1.431000 147 255 0 0.000000
387957.481001 3551522.940002 5.091000 255 220 0 0.000000
387958.320000 3551523.010002 5.260000 255 213 0 0.000000
387959.240000 3551523.480003 4.209999 255 255 0 0.000000
387956.670000 3551523.680000 1.600000 154 255 0 0.000000
387957.511000 3551522.730003 5.061001 255 221 0 0.000000
387958.361000 3551522.910004 4.889999 255 228 0 0.000000
387956.709999 3551523.510002 1.381001 145 255 0 0.000000
387958.389999 3551522.680000 4.910000 255 227 0 0.000000
387959.330999 3551523.128998 3.889999 243 255 0 0.000000
387955.809999 3551523.150002 1.291000 142 255 0 0.000000
387956.740000 3551523.628998 0.160000 97 255 0 0.000000
387957.580999 3551522.400002 4.690001 255 236 0 0.000000
387958.481001 3551522.790001 3.830999 240 255 0 0.000000
387959.379999 3551523.018997 3.510000 228 255 0 0.000000
387956.780001 3551522.900002 1.830999 163 255 0 0.000000
