387963.590000 3551523.510002 7.870001 255 112 0 0.000000
387965.280000 3551523.348999 9.131001 255 63 0 0.000000
387965.731000 3551523.650002 8.170000 255 100 0 0.000000
387966.140000 3551523.980003 7.049999 255 144 0 0.000000
387966.401000 3551524.400002 5.541000 255 203 0 0.000000
387966.380000 3551525.010002 3.170000 214 255 0 0.000000
387967.161000 3551525.250000 2.561001 191 255 0 0.000000
387963.611000 3551523.319000 7.811001 255 115 0 0.000000
387965.191000 3551523.209000 8.881001 255 73 0 0.000000
387966.030000 3551523.348999 8.670000 255 81 0 0.000000
387966.140000 3551523.790001 6.959999 255 148 0 0.000000
387966.500000 3551524.160004 5.660000 255 198 0 0.000000
387966.971000 3551524.510002 4.440001 255 246 0 0.000000
387967.200000 3551525.018997 2.541000 190 255 0 0.000000
387963.640000 3551523.120003 7.780001 255 115 0 0.000000
387965.210000 3551523.028999 8.820000 255 75 0 0.000000
387966.081000 3551523.150002 8.670000 255 81 0 0.000000
387966.060000 3551523.639000 6.701000 255 157 0 0.000000
387965.850000 3551524.250000 4.120001 252 255 0 0.000000
387967.481000 3551524.069000 5.530001 255 203 0 0.000000
387965.880000 3551525.488998 -0.889000 57 255 0 0.000000
387963.291000 3551523.050003 7.070000 255 143 0 0.000000
387965.181000 3551522.860001 8.690001 255 80 0 0.000000
387965.960000 3551523.018997 8.350000 255 94 0 0.000000
387966.611000 3551523.230003 7.760000 255 116 0 0.000000
387966.270000 3551523.870003 4.931000 255 226 0 0.000000
387967.670000 3551524.370003 3.471001 226 255 0 0.000000
387963.460000 3551522.808998 7.280001 255 135 0 0.000000
387965.200000 3551522.668999 8.650999 255 82 0 0.000000
387965.981000 3551522.830002 8.299999 255 95 0 0.000000
387966.611000 3551523.050003 7.660000 255 120 0 0.000000
387966.871000 3551523.430000 6.160000 255 178 0 0.000000
387967.661000 3551523.598999 5.750000 255 195 0 0.000000
387967.661000 3551524.168999 3.341000 221 255 0 0.000000
387963.560000 3551522.588997 7.370001 255 132 0 0.000000
387965.181000 3551522.500000 8.521000 255 87 0 0.000000
387966.100000 3551522.620003 8.440001 255 90 0 0.000000
387965.320000 3551523.348999 4.870001 255 228 0 0.000000
387966.850000 3551523.238998 6.030001 255 183 0 0.000000
387967.651000 3551523.418999 5.611000 255 200 0 0.000000
387968.191000 3551523.709000 4.570000 255 240 0 0.000000
387962.590000 3551522.690002 5.570000 255 201 0 0.000000
387965.100000 3551522.348999 8.280001 255 96 0 0.000000
387966.100000 3551522.440002 8.350000 255 94 0 0.000000
387965.990000 3551522.910004 6.170000 255 178 0 0.000000
387967.081000 3551522.959000 6.440001 255 168 0 0.000000
387967.291000 3551523.378998 4.670000 255 237 0 0.000000
387963.640000 3551522.190002 7.350000 255 133 0 0.000000
387965.130000 3551522.150002 8.260000 255 97 0 0.000000
387966.000000 3551522.278999 8.080999 255 104 0 0.000000
387966.460000 3551523.000000 4.959999 255 225 0 0.000000
387967.371000 3551523.139000 4.740999 255 234 0 0.000000
387968.270000 3551523.278999 4.561001 255 240 0 0.000000
387963.570000 3551522.028999 7.139999 255 140 0 0.000000
387965.111000 3551521.980003 8.131001 255 102 0 0.000000
387966.350000 3551522.400002 6.740999 255 156 0 0.000000
387966.590000 3551522.760002 5.139999 255 218 0 0.000000
387967.441000 3551522.910004 4.811001 255 231 0 0.000000
387968.041000 3551523.180000 3.850000 241 255 0 0.000000
387964.581000 3551521.940002 7.061001 255 144 0 0.000000
387965.761000 3551521.988998 7.440001 255 129 0 0.000000
387966.390000 3551522.190002 6.740999 255 156 0 0.000000
387966.941000 3551522.440002 5.830999 255 191 0 0.000000
387967.810000 3551523.069000 3.150999 213 255 0 0.000000
387964.221000 3551521.848999 6.299999 255 173 0 0.000000
387965.670000 3551521.830002 7.170000 255 139 0 0.000000
387966.441000 3551521.988998 6.771000 255 155 0 0.000000
387967.130000 3551522.180000 6.160000 255 178 0 0.000000
387967.151000 3551522.628998 3.910000 243 255 0 0.000000
387968.070000 3551522.760002 3.721001 236 255 0 0.000000
387964.350000 3551521.628998 6.451000 255 167 0 0.000000
387965.731000 3551521.628998 7.201000 255 138 0 0.000000
387966.411000 3551521.808998 6.600000 255 161 0 0.000000
387967.041000 3551522.018997 5.881001 255 189 0 0.000000
387967.250000 3551522.389000 4.061001 249 255 0 0.000000
387968.060000 3551522.558998 3.580999 231 255 0 0.000000
387968.200000 3551523.018997 1.260000 140 255 0 0.000000
387964.500000 3551521.389000 6.670000 255 159 0 0.000000
387965.270000 3551521.558998 6.190001 255 177 0 0.000000
387966.500000 3551521.588997 6.709999 255 157 0 0.000000
387966.941000 3551521.848999 5.561001 255 201 0 0.000000
387967.471000 3551522.110001 4.490999 255 243 0 0.000000
387967.551000 3551522.540001 2.170000 176 255 0 0.000000
387964.450000 3551521.209000 6.490999 255 166 0 0.000000
387965.401000 3551521.330002 6.370001 255 170 0 0.000000
387966.420000 3551521.418999 6.451000 255 167 0 0.000000
387966.890000 3551521.668999 5.330999 255 210 0 0.000000
387967.520000 3551521.889000 4.510000 255 243 0 0.000000
387964.151000 3551521.088997 5.841000 255 191 0 0.000000
387965.011000 3551521.230003 5.490999 255 204 0 0.000000
387966.170000 3551521.300003 5.841000 255 191 0 0.000000
387966.960000 3551521.448997 5.410000 255 207 0 0.000000
387967.111000 3551522.260002 0.791000 122 255 0 0.000000
387965.621000 3551523.338997 -6.278999 0 103 151 0.000000
387963.840000 3551520.959000 5.160000 255 217 0 0.000000
387965.121000 3551521.010002 5.650999 255 198 0 0.000000
387966.200000 3551521.098999 5.799999 255 192 0 0.000000
387966.840000 3551521.290001 5.061001 255 221 0 0.000000
387963.750000 3551520.778999 4.910000 255 227 0 0.000000
387965.060000 3551520.830002 5.440001 255 207 0 0.000000
387965.651000 3551521.040001 4.541000 255 241 0 0.000000
387965.121000 3551520.620003 5.471001 255 205 0 0.000000
387964.651000 3551521.058998 2.311001 181 255 0 0.000000
387966.691000 3551520.930000 4.521000 255 242 0 0.000000
387968.121000 3551522.790001 -6.540001 0 92 162 0.000000
387965.750000 3551520.598999 4.600000 255 239 0 0.000000
387964.621000 3551520.628998 2.049999 171 255 0 0.000000
387964.350000 3551526.308998 5.010000 255 223 0 0.000000
387965.231000 3551525.668999 6.650999 255 160 0 0.000000
387964.750000 3551525.120003 7.530001 255 125 0 0.000000
387965.250000 3551525.470001 6.580999 255 163 0 0.000000
387965.551000 3551525.948997 5.111000 255 219 0 0.000000
387966.030000 3551526.378998 3.910000 243 255 0 0.000000
387964.740000 3551524.940002 7.400999 255 130 0 0.000000
387965.280000 3551525.268997 6.510000 255 165 0 0.000000
387965.551000 3551525.760002 5.000000 255 224 0 0.000000
387966.081000 3551526.150002 3.900999 243 255 0 0.000000
387964.780000 3551524.738998 7.370001 255 132 0 0.000000
387965.890000 3551524.800003 7.631001 255 121 0 0.000000
387965.581000 3551525.550003 4.940001 255 226 0 0.000000
387965.981000 3551526.010002 3.549999 229 255 0 0.000000
387966.801000 3551526.250000 3.049999 210 255 0 0.000000
387964.340000 3551524.220001 8.291000 255 96 0 0.000000
387965.600000 3551524.209000 8.820000 255 75 0 0.000000
387965.971000 3551524.580002 7.681000 255 119 0 0.000000
387966.481000 3551524.910004 6.750000 255 156 0 0.000000
387966.070000 3551525.760002 3.631001 232 255 0 0.000000
387966.871000 3551526.010002 3.070000 210 255 0 0.000000
387964.791000 3551523.860001 9.010000 255 68 0 0.000000
387965.481000 3551524.080002 8.500000 255 88 0 0.000000
387966.151000 3551524.319000 7.940001 255 109 0 0.000000
387966.530000 3551524.698997 6.760000 255 155 0 0.000000
387966.151000 3551525.518997 3.690001 234 255 0 0.000000
387966.890000 3551525.800003 3.000000 208 255 0 0.000000
387967.770000 3551526.000000 2.631001 193 255 0 0.000000
387964.920000 3551523.639000 9.150999 255 62 0 0.000000
387965.471000 3551523.910004 8.389999 255 92 0 0.000000
387966.020000 3551524.198997 7.570000 255 124 0 0.000000
387966.710000 3551524.430000 7.030001 255 145 0 0.000000
387964.960000 3551525.930000 0.841000 124 255 0 0.000000
387966.971000 3551525.540001 3.070000 210 255 0 0.000000
387964.990000 3551523.440002 9.181000 255 62 0 0.000000
387965.490000 3551523.720001 8.330999 255 94 0 0.000000
387966.130000 3551523.970001 7.701000 255 118 0 0.000000
387966.750000 3551524.220001 7.010000 255 145 0 0.000000
387966.170000 3551525.098999 3.490999 227 255 0 0.000000
387967.020000 3551525.319000 3.049999 210 255 0 0.000000
387964.971000 3551523.268997 9.049999 255 66 0 0.000000
387965.740000 3551523.448997 8.701000 255 80 0 0.000000
387965.911000 3551523.878998 7.150999 255 140 0 0.000000
387966.831000 3551524.000000 7.080999 255 143 0 0.000000
387967.200000 3551524.400002 5.730000 255 195 0 0.000000
387967.070000 3551525.080002 3.049999 210 255 0 0.000000
387964.710000 3551523.190002 8.480000 255 88 0 0.000000
387965.840000 3551523.230003 8.799999 255 76 0 0.000000
387965.950000 3551523.668999 7.139999 255 140 0 0.000000
387966.140000 3551524.128998 5.451000 255 206 0 0.000000
387967.181000 3551524.209000 5.570000 255 201 0 0.000000
387966.971000 3551524.930000 2.670000 195 255 0 0.000000
387965.011000 3551522.910004 8.951000 255 70 0 0.000000
387965.871000 3551523.050003 8.780001 255 77 0 0.000000
387966.371000 3551523.330002 7.889999 255 112 0 0.000000
387966.791000 3551523.660004 6.771000 255 155 0 0.000000
387967.231000 3551524.000000 5.580999 255 201 0 0.000000
387966.960000 3551524.738998 2.530001 189 255 0 0.000000
387965.081000 3551522.709000 8.990999 255 68 0 0.000000
387965.710000 3551522.930000 8.370001 255 93 0 0.000000
387966.380000 3551523.139000 7.830999 255 114 0 0.000000
387966.320000 3551523.660004 5.639999 255 198 0 0.000000
387967.441000 3551523.720001 5.951000 255 186 0 0.000000
387966.960000 3551524.518997 2.410000 185 255 0 0.000000
387964.950000 3551522.569000 8.639999 255 83 0 0.000000
387965.850000 3551522.698997 8.541000 255 86 0 0.000000
387966.261000 3551523.000000 7.480000 255 127 0 0.000000
387966.640000 3551523.338997 6.230000 255 176 0 0.000000
387967.361000 3551523.558998 5.670000 255 198 0 0.000000
387966.920000 3551524.330002 2.190001 177 255 0 0.000000
387964.850000 3551522.430000 8.381001 255 92 0 0.000000
387965.611000 3551522.598999 7.980000 255 108 0 0.000000
387966.181000 3551522.848999 7.209999 255 138 0 0.000000
387966.761000 3551523.098999 6.410000 255 169 0 0.000000
387966.901000 3551524.139000 2.000000 169 255 0 0.000000
387963.890000 3551522.540001 6.510000 255 165 0 0.000000
387965.570000 3551522.440002 7.820000 255 114 0 0.000000
387966.380000 3551522.588997 7.541000 255 125 0 0.000000
387966.810000 3551522.900002 6.410000 255 169 0 0.000000
387967.070000 3551523.300003 4.760000 255 233 0 0.000000
387968.051000 3551523.410004 4.780001 255 232 0 0.000000
387964.791000 3551522.080002 8.100000 255 103 0 0.000000
387965.520000 3551522.268997 7.620001 255 122 0 0.000000
387966.401000 3551522.410004 7.471001 255 127 0 0.000000
387966.820000 3551522.709000 6.330999 255 171 0 0.000000
387967.100000 3551523.088997 4.730000 255 234 0 0.000000
387967.861000 3551523.290001 4.190001 254 255 0 0.000000
387964.390000 3551522.010002 7.271000 255 136 0 0.000000
387965.450000 3551522.110001 7.389999 255 130 0 0.000000
387966.261000 3551522.268997 7.091000 255 142 0 0.000000
387966.850000 3551522.500000 6.291000 255 174 0 0.000000
387967.181000 3551522.860001 4.811001 255 231 0 0.000000
387967.691000 3551523.168999 3.631001 232 255 0 0.000000
387964.261000 3551521.860001 6.920000 255 149 0 0.000000
387965.500000 3551521.900002 7.410000 255 130 0 0.000000
387966.331000 3551522.058998 7.139999 255 140 0 0.000000
387966.831000 3551522.319000 6.150999 255 179 0 0.000000
387966.831000 3551522.790001 3.861000 241 255 0 0.000000
387967.691000 3551522.959000 3.510000 228 255 0 0.000000
387967.971000 3551523.389000 1.580999 153 255 0 0.000000
387963.880000 3551521.768997 6.120001 255 180 0 0.000000
387965.411000 3551521.738998 7.139999 255 140 0 0.000000
387966.411000 3551521.838997 7.209999 255 138 0 0.000000
387966.941000 3551522.088997 6.299999 255 173 0 0.000000
387967.390000 3551522.378998 5.091000 255 220 0 0.000000
387967.740000 3551522.730003 3.541000 229 255 0 0.000000
387967.890000 3551523.209000 1.240999 139 255 0 0.000000
387964.090000 3551521.518997 6.440001 255 168 0 0.000000
387965.420000 3551521.550003 7.070000 255 143 0 0.000000
387966.210000 3551521.720001 6.690001 255 158 0 0.000000
387966.871000 3551521.918999 6.041000 255 183 0 0.000000
387967.450000 3551522.160004 5.131001 255 219 0 0.000000
387967.981000 3551522.440002 4.021000 248 255 0 0.000000
387967.960000 3551522.959000 1.320000 142 255 0 0.000000
387965.121000 3551521.440002 6.381001 255 170 0 0.000000
387966.170000 3551521.540001 6.521000 255 165 0 0.000000
387967.361000 3551522.000000 4.811001 255 231 0 0.000000
387968.051000 3551522.720001 1.440001 148 255 0 0.000000
387964.051000 3551521.150002 6.181000 255 177 0 0.000000
387965.240000 3551521.230003 6.521000 255 165 0 0.000000
387966.270000 3551521.319000 6.650999 255 160 0 0.000000
387966.651000 3551521.598999 5.361000 255 210 0 0.000000
387967.490000 3551521.760002 5.021000 255 223 0 0.000000
387966.791000 3551522.459000 0.750000 121 255 0 0.000000
387967.861000 3551522.569000 0.799999 122 255 0 0.000000
387964.041000 3551520.959000 6.080999 255 181 0 0.000000
387964.981000 3551521.088997 5.920000 255 188 0 0.000000
387966.000000 3551521.198997 5.980000 255 186 0 0.000000
387966.570000 3551521.418999 5.070000 255 221 0 0.000000
387966.920000 3551522.190002 0.959999 129 255 0 0.000000
387965.030000 3551520.878998 5.940001 255 187 0 0.000000
387966.030000 3551520.988998 5.959999 255 186 0 0.000000
387965.880000 3551521.410004 3.420000 224 255 0 0.000000
387964.920000 3551520.709000 5.620001 255 199 0 0.000000
387965.431000 3551520.940002 4.591000 255 240 0 0.000000
387965.901000 3551521.198997 3.370001 222 255 0 0.000000
387964.450000 3551520.970001 2.389999 184 255 0 0.000000
387964.420000 3551520.760002 2.230000 178 255 0 0.000000
387964.200000 3551526.198997 5.389999 255 208 0 0.000000
387965.000000 3551525.610001 6.830999 255 153 0 0.000000
387965.011000 3551525.418999 6.740999 255 156 0 0.000000
387965.600000 3551526.448997 3.690001 234 255 0 0.000000
387966.250000 3551526.808998 2.799999 200 255 0 0.000000
387965.000000 3551525.250000 6.591000 255 162 0 0.000000
387965.371000 3551525.690002 5.311001 255 211 0 0.000000
387964.670000 3551524.639000 7.740999 255 117 0 0.000000
387965.161000 3551524.980003 6.811001 255 154 0 0.000000
387964.681000 3551525.848999 3.721001 236 255 0 0.000000
387966.460000 3551526.278999 3.030001 209 255 0 0.000000
387963.780000 3551524.290001 7.830999 255 114 0 0.000000
387964.640000 3551524.470001 7.580999 255 124 0 0.000000
387965.941000 3551524.440002 8.250000 255 97 0 0.000000
387966.231000 3551524.870003 6.889999 255 150 0 0.000000
387964.710000 3551526.319000 1.311001 142 255 0 0.000000
387966.530000 3551526.040001 3.061001 210 255 0 0.000000
387963.191000 3551524.338997 6.670000 255 159 0 0.000000
387964.630000 3551524.290001 7.459999 255 128 0 0.000000
387966.111000 3551524.190002 8.471001 255 88 0 0.000000
387966.420000 3551524.598999 7.160000 255 139 0 0.000000
387966.840000 3551525.000000 5.971001 255 186 0 0.000000
387966.541000 3551525.830002 2.940001 205 255 0 0.000000
387967.511000 3551525.988998 2.811001 201 255 0 0.000000
387965.181000 3551523.889000 8.400999 255 91 0 0.000000
387966.011000 3551524.058998 8.170000 255 100 0 0.000000
387966.401000 3551524.430000 7.010000 255 145 0 0.000000
387966.890000 3551524.790001 5.959999 255 186 0 0.000000
387966.570000 3551525.620003 2.889999 204 255 0 0.000000
387967.581000 3551525.750000 2.861000 202 255 0 0.000000
387964.621000 3551523.440002 9.041000 255 67 0 0.000000
387965.161000 3551523.720001 8.260000 255 97 0 0.000000
387965.990000 3551523.889000 8.021000 255 106 0 0.000000
387965.971000 3551524.448997 5.980000 255 186 0 0.000000
387966.801000 3551524.650002 5.650999 255 198 0 0.000000
387966.770000 3551525.308998 3.230000 217 255 0 0.000000
387964.081000 3551523.459000 7.971001 255 108 0 0.000000
387965.600000 3551523.370003 9.000000 255 68 0 0.000000
387965.981000 3551523.720001 7.889999 255 112 0 0.000000
387966.630000 3551523.959000 7.280001 255 135 0 0.000000
387966.791000 3551524.459000 5.500000 255 204 0 0.000000
387966.831000 3551525.069000 3.250000 218 255 0 0.000000
387963.810000 3551523.370003 7.370001 255 132 0 0.000000
387965.681000 3551523.160004 9.061001 255 66 0 0.000000
387963.871000 3551524.389000 3.510000 228 255 0 0.000000
387965.880000 3551524.110001 5.561001 255 201 0 0.000000
387967.181000 3551524.080002 6.280001 255 174 0 0.000000
387966.810000 3551524.878998 3.061001 210 255 0 0.000000
387964.581000 3551522.918999 8.681000 255 80 0 0.000000
387965.250000 3551523.150002 8.131001 255 102 0 0.000000
387966.140000 3551523.290001 8.021000 255 106 0 0.000000
387966.710000 3551523.558998 7.240999 255 136 0 0.000000
387967.221000 3551523.878998 6.250000 255 175 0 0.000000
387966.681000 3551524.738998 2.620001 193 255 0 0.000000
387964.390000 3551522.800003 8.240999 255 97 0 0.000000
387965.280000 3551522.959000 8.080999 255 104 0 0.000000
387966.210000 3551523.080002 8.049999 255 105 0 0.000000
387966.630000 3551523.410004 6.959999 255 148 0 0.000000
387967.181000 3551523.709000 6.030001 255 183 0 0.000000
387966.691000 3551524.528999 2.510000 189 255 0 0.000000
387967.390000 3551524.830002 1.639999 155 255 0 0.000000
387964.310000 3551522.650002 8.000000 255 107 0 0.000000
387965.060000 3551522.848999 7.561001 255 124 0 0.000000
387966.090000 3551522.948997 7.701000 255 118 0 0.000000
387965.350000 3551523.738998 4.070000 249 255 0 0.000000
387966.990000 3551523.610001 5.480000 255 205 0 0.000000
387966.681000 3551524.330002 2.361000 183 255 0 0.000000
387968.151000 3551524.230003 3.530001 228 255 0 0.000000
387964.331000 3551522.470001 7.940001 255 109 0 0.000000
387965.401000 3551522.558998 8.131001 255 102 0 0.000000
387966.250000 3551522.709000 7.951000 255 109 0 0.000000
387966.460000 3551523.110001 6.370001 255 170 0 0.000000
387966.750000 3551523.518997 4.830999 255 230 0 0.000000
387967.401000 3551523.790001 4.021000 248 255 0 0.000000
387968.320000 3551523.948997 3.830999 240 255 0 0.000000
387963.411000 3551522.558998 6.160000 255 178 0 0.000000
387965.420000 3551522.370003 8.070000 255 104 0 0.000000
387966.280000 3551522.518997 7.889999 255 112 0 0.000000
387966.460000 3551522.918999 6.260000 255 174 0 0.000000
387966.661000 3551523.360001 4.480000 255 244 0 0.000000
387967.530000 3551523.528999 4.201000 255 255 0 0.000000
387968.340000 3551523.738998 3.771000 238 255 0 0.000000
387963.850000 3551522.238998 6.870001 255 151 0 0.000000
387965.401000 3551522.198997 7.931000 255 109 0 0.000000
387966.100000 3551522.400002 7.420000 255 130 0 0.000000
387966.511000 3551522.709000 6.271000 255 174 0 0.000000
387966.820000 3551523.088997 4.750000 255 234 0 0.000000
387967.541000 3551523.330002 4.111000 251 255 0 0.000000
387967.901000 3551523.738998 2.451000 186 255 0 0.000000
387963.670000 3551522.098999 6.440001 255 168 0 0.000000
387965.270000 3551522.050003 7.591000 255 123 0 0.000000
387966.070000 3551522.220001 7.271000 255 136 0 0.000000
387966.581000 3551522.488998 6.320000 255 172 0 0.000000
387966.950000 3551522.848999 4.931000 255 226 0 0.000000
387967.590000 3551523.110001 4.100000 251 255 0 0.000000
387967.530000 3551523.698997 1.341000 143 255 0 0.000000
387963.041000 3551522.080002 5.190001 255 216 0 0.000000
387965.280000 3551521.870003 7.510000 255 126 0 0.000000
387966.191000 3551522.000000 7.420000 255 130 0 0.000000
387966.490000 3551522.338997 6.021000 255 184 0 0.000000
387967.011000 3551522.628998 4.971001 255 225 0 0.000000
387967.371000 3551523.000000 3.440001 225 255 0 0.000000
387968.231000 3551523.180000 3.080999 211 255 0 0.000000
387962.721000 3551521.970001 4.490999 255 243 0 0.000000
387965.170000 3551521.709000 7.209999 255 138 0 0.000000
387966.121000 3551521.838997 7.170000 255 139 0 0.000000
387966.500000 3551522.150002 5.920000 255 188 0 0.000000
387967.020000 3551522.430000 4.881001 255 228 0 0.000000
387967.621000 3551522.690002 3.959999 245 255 0 0.000000
387963.621000 3551521.540001 6.070000 255 182 0 0.000000
387964.651000 3551521.668999 6.091000 255 181 0 0.000000
387965.920000 3551521.709000 6.660000 255 159 0 0.000000
387966.630000 3551521.910004 6.131001 255 180 0 0.000000
387967.100000 3551522.198997 4.971001 255 225 0 0.000000
387967.681000 3551522.470001 3.980000 246 255 0 0.000000
387968.020000 3551522.860001 2.271000 180 255 0 0.000000
387964.651000 3551521.480003 5.990999 255 185 0 0.000000
387965.990000 3551521.500000 6.709999 255 157 0 0.000000
387966.950000 3551522.058998 4.490999 255 243 0 0.000000
387967.390000 3551522.378998 3.139999 213 255 0 0.000000
387967.361000 3551522.910004 0.350000 105 255 0 0.000000
387964.590000 3551521.300003 5.760000 255 194 0 0.000000
387965.611000 3551521.410004 5.820000 255 192 0 0.000000
387965.051000 3551521.988998 2.370001 183 255 0 0.000000
387967.121000 3551521.800003 4.791000 255 231 0 0.000000
387967.541000 3551522.110001 3.400999 223 255 0 0.000000
387964.401000 3551521.150002 5.291000 255 212 0 0.000000
387965.611000 3551521.220001 5.721001 255 195 0 0.000000
387966.340000 3551521.418999 5.160000 255 217 0 0.000000
387967.340000 3551521.528999 5.201000 255 216 0 0.000000
387967.691000 3551521.860001 3.639999 233 255 0 0.000000
387964.861000 3551520.838997 6.131001 255 180 0 0.000000
387965.331000 3551521.098999 5.021000 255 223 0 0.000000
387965.661000 3551521.400002 3.530001 228 255 0 0.000000
387964.761000 3551520.668999 5.830999 255 191 0 0.000000
387965.471000 3551520.860001 5.230000 255 215 0 0.000000
387965.710000 3551521.180000 3.530001 228 255 0 0.000000
387964.551000 3551520.518997 5.320000 255 211 0 0.000000
387965.221000 3551520.720001 4.611000 255 239 0 0.000000
387965.761000 3551520.760002 3.431000 225 255 0 0.000000
387965.161000 3551520.680000 1.990999 169 255 0 0.000000
387964.041000 3551526.050003 6.010000 255 184 0 0.000000
387964.551000 3551526.268997 4.861000 255 229 0 0.000000
387964.831000 3551525.290001 7.311001 255 134 0 0.000000
387965.420000 3551525.620003 6.510000 255 165 0 0.000000
387964.920000 3551525.069000 7.350000 255 133 0 0.000000
387965.401000 3551525.448997 6.370001 255 170 0 0.000000
387966.250000 3551526.360001 3.820000 240 255 0 0.000000
387965.401000 3551524.668999 8.181000 255 100 0 0.000000
387965.411000 3551525.260002 6.260000 255 174 0 0.000000
387966.250000 3551526.160004 3.681000 234 255 0 0.000000
387967.051000 3551526.440002 3.150999 213 255 0 0.000000
387964.450000 3551524.360001 8.080999 255 104 0 0.000000
387965.621000 3551524.400002 8.490999 255 88 0 0.000000
387966.221000 3551524.680000 7.820000 255 114 0 0.000000
387965.890000 3551525.480003 5.021000 255 223 0 0.000000
387966.270000 3551525.959000 3.580999 231 255 0 0.000000
387967.181000 3551526.160004 3.320000 220 255 0 0.000000
387964.500000 3551524.160004 8.070000 255 104 0 0.000000
387965.681000 3551524.198997 8.500000 255 88 0 0.000000
387966.240000 3551524.488998 7.740999 255 117 0 0.000000
387966.240000 3551525.778999 3.381001 222 255 0 0.000000
387967.151000 3551525.970001 3.120001 213 255 0 0.000000
387964.981000 3551523.790001 8.850000 255 74 0 0.000000
387965.710000 3551524.000000 8.451000 255 89 0 0.000000
387966.231000 3551524.319000 7.591000 255 123 0 0.000000
387966.541000 3551524.760002 6.201000 255 177 0 0.000000
387966.280000 3551525.558998 3.320000 220 255 0 0.000000
387967.200000 3551525.750000 3.080999 211 255 0 0.000000
387965.121000 3551523.558998 9.010000 255 68 0 0.000000
387965.630000 3551523.860001 8.181000 255 100 0 0.000000
387966.051000 3551524.220001 7.111000 255 142 0 0.000000
387966.481000 3551524.610001 5.940001 255 187 0 0.000000
387965.740000 3551525.639000 1.910000 166 255 0 0.000000
387967.151000 3551525.580002 2.820000 201 255 0 0.000000
387963.560000 3551523.470001 7.841000 255 113 0 0.000000
387965.250000 3551523.338997 9.150999 255 62 0 0.000000
387965.541000 3551523.720001 7.900999 255 111 0 0.000000
387966.070000 3551524.028999 7.041000 255 145 0 0.000000
387966.460000 3551524.430000 5.771000 255 194 0 0.000000
387966.791000 3551524.889000 4.260000 255 252 0 0.000000
387967.210000 3551525.338997 2.830999 201 255 0 0.000000
387963.590000 3551523.278999 7.799999 255 115 0 0.000000
387965.181000 3551523.190002 8.931000 255 71 0 0.000000
387966.011000 3551523.360001 8.730000 255 79 0 0.000000
387966.090000 3551523.838997 6.971001 255 147 0 0.000000
387966.390000 3551524.278999 5.490999 255 204 0 0.000000
387967.020000 3551524.580002 4.681000 255 236 0 0.000000
387967.200000 3551525.150002 2.650999 194 255 0 0.000000
387965.191000 3551523.010002 8.850000 255 74 0 0.000000
387966.060000 3551523.160004 8.730000 255 79 0 0.000000
387965.710000 3551523.819000 6.041000 255 183 0 0.000000
387966.291000 3551524.128998 5.160000 255 217 0 0.000000
387967.431000 3551524.180000 5.541000 255 203 0 0.000000
387967.210000 3551524.940002 2.541000 190 255 0 0.000000
387963.291000 3551523.010002 7.049999 255 144 0 0.000000
387965.170000 3551522.838997 8.701000 255 80 0 0.000000
387965.941000 3551523.028999 8.381001 255 92 0 0.000000
387966.630000 3551523.250000 7.881001 255 112 0 0.000000
387966.210000 3551523.970001 4.850000 255 229 0 0.000000
387967.450000 3551523.980003 5.471001 255 205 0 0.000000
387965.920000 3551525.410004 -0.909000 56 255 0 0.000000
387963.481000 3551522.768997 7.291000 255 135 0 0.000000
387964.960000 3551522.738998 8.201000 255 99 0 0.000000
387966.011000 3551522.830002 8.410000 255 91 0 0.000000
387966.570000 3551523.098999 7.639999 255 121 0 0.000000
387966.320000 3551523.730003 4.971001 255 225 0 0.000000
387967.681000 3551523.690002 5.889999 255 189 0 0.000000
387962.301000 3551522.940002 5.061001 255 221 0 0.000000
387965.181000 3551522.488998 8.521000 255 87 0 0.000000
387966.070000 3551522.628998 8.420000 255 91 0 0.000000
387966.340000 3551523.528999 4.881001 255 228 0 0.000000
387967.670000 3551523.500000 5.750000 255 195 0 0.000000
387968.121000 3551523.870003 4.459999 255 245 0 0.000000
387962.640000 3551522.639000 5.580999 255 201 0 0.000000
387965.011000 3551522.360001 8.100000 255 103 0 0.000000
387966.060000 3551522.459000 8.299999 255 95 0 0.000000
387964.651000 3551523.459000 3.311001 220 255 0 0.000000
387967.041000 3551523.050003 6.381001 255 170 0 0.000000
387967.100000 3551523.569000 4.230000 255 254 0 0.000000
387968.291000 3551523.598999 4.791000 255 231 0 0.000000
387963.670000 3551522.160004 7.341000 255 133 0 0.000000
387965.121000 3551522.150002 8.209999 255 99 0 0.000000
387966.060000 3551522.278999 8.209999 255 99 0 0.000000
387965.931000 3551522.790001 5.951000 255 186 0 0.000000
387966.441000 3551523.110001 4.870001 255 228 0 0.000000
387967.340000 3551523.268997 4.690001 255 236 0 0.000000
387968.280000 3551523.410004 4.620001 255 238 0 0.000000
387963.331000 3551522.069000 6.620001 255 160 0 0.000000
387965.060000 3551521.988998 7.990999 255 107 0 0.000000
387966.331000 3551522.448997 6.709999 255 157 0 0.000000
387966.441000 3551522.910004 4.771000 255 232 0 0.000000
387967.460000 3551523.018997 4.861000 255 229 0 0.000000
387968.261000 3551523.220001 4.440001 255 246 0 0.000000
387962.621000 3551522.058998 5.240999 255 214 0 0.000000
387964.630000 3551521.930000 7.080999 255 143 0 0.000000
387965.810000 3551522.000000 7.500000 255 127 0 0.000000
387966.380000 3551522.250000 6.701000 255 157 0 0.000000
387966.640000 3551522.628998 5.120001 255 219 0 0.000000
387967.450000 3551522.830002 4.709999 255 235 0 0.000000
387968.121000 3551523.088997 3.940001 244 255 0 0.000000
387964.210000 3551521.860001 6.150999 255 179 0 0.000000
387965.691000 3551521.848999 7.150999 255 140 0 0.000000
387966.420000 3551522.050003 6.670000 255 159 0 0.000000
387966.990000 3551522.308998 5.791000 255 193 0 0.000000
387967.151000 3551522.750000 3.861000 241 255 0 0.000000
387967.651000 3551523.088997 2.570000 191 255 0 0.000000
387964.431000 3551521.610001 6.490999 255 166 0 0.000000
387965.721000 3551521.660004 7.100000 255 142 0 0.000000
387966.490000 3551521.838997 6.721001 255 157 0 0.000000
387967.100000 3551522.080002 5.951000 255 186 0 0.000000
387967.221000 3551522.518997 3.910000 243 255 0 0.000000
387968.100000 3551522.690002 3.650999 233 255 0 0.000000
387964.541000 3551521.389000 6.611000 255 161 0 0.000000
387965.320000 3551521.580002 6.190001 255 177 0 0.000000
387966.481000 3551521.650002 6.600000 255 161 0 0.000000
387966.981000 3551521.930000 5.541000 255 203 0 0.000000
387967.380000 3551522.260002 4.170000 253 255 0 0.000000
387964.541000 3551521.198997 6.510000 255 165 0 0.000000
387965.431000 3551521.360001 6.299999 255 173 0 0.000000
387966.450000 3551521.470001 6.420000 255 169 0 0.000000
387966.981000 3551521.738998 5.440001 255 207 0 0.000000
387967.530000 3551522.010002 4.420000 255 246 0 0.000000
387967.630000 3551522.470001 2.120001 174 255 0 0.000000
387964.240000 3551521.080002 5.830999 255 191 0 0.000000
387965.020000 3551521.268997 5.370001 255 209 0 0.000000
387966.151000 3551521.370003 5.670000 255 198 0 0.000000
387966.950000 3551521.550003 5.271000 255 213 0 0.000000
387965.111000 3551521.050003 5.440001 255 207 0 0.000000
387966.210000 3551521.160004 5.681000 255 197 0 0.000000
387966.931000 3551521.360001 5.100000 255 219 0 0.000000
387963.831000 3551520.778999 4.820000 255 231 0 0.000000
387965.151000 3551520.848999 5.440001 255 207 0 0.000000
387965.651000 3551521.110001 4.350000 255 249 0 0.000000
387965.181000 3551520.639000 5.400999 255 208 0 0.000000
387965.721000 3551520.889000 4.400999 255 247 0 0.000000
387965.011000 3551520.480003 4.951000 255 225 0 0.000000
387965.861000 3551520.650002 4.611000 255 239 0 0.000000
387965.191000 3551525.628998 6.660000 255 159 0 0.000000
387964.731000 3551525.058998 7.549999 255 124 0 0.000000
387965.240000 3551525.430000 6.631001 255 160 0 0.000000
387966.000000 3551526.389000 3.951000 245 255 0 0.000000
387964.700000 3551524.889000 7.381001 255 131 0 0.000000
387965.200000 3551525.260002 6.420000 255 169 0 0.000000
387965.541000 3551525.750000 5.030001 255 222 0 0.000000
387966.070000 3551526.160004 3.959999 245 255 0 0.000000
387964.291000 3551524.330002 8.311001 255 95 0 0.000000
387964.761000 3551524.690002 7.361000 255 132 0 0.000000
387965.770000 3551524.800003 7.471001 255 127 0 0.000000
387965.590000 3551525.540001 5.000000 255 224 0 0.000000
387965.990000 3551526.010002 3.620001 232 255 0 0.000000
387966.761000 3551526.308998 3.021000 209 255 0 0.000000
387964.280000 3551524.160004 8.190001 255 100 0 0.000000
387965.541000 3551524.160004 8.780001 255 77 0 0.000000
387966.060000 3551524.488998 7.940001 255 109 0 0.000000
387966.441000 3551524.910004 6.730000 255 157 0 0.000000
387966.030000 3551525.800003 3.570000 230 255 0 0.000000
387966.880000 3551526.040001 3.170000 214 255 0 0.000000
387964.801000 3551523.778999 9.030001 255 67 0 0.000000
387965.471000 3551524.018997 8.521000 255 87 0 0.000000
387966.181000 3551524.250000 8.070000 255 104 0 0.000000
387966.520000 3551524.680000 6.780001 255 154 0 0.000000
387966.111000 3551525.550003 3.620001 232 255 0 0.000000
387966.920000 3551525.819000 3.120001 213 255 0 0.000000
387964.971000 3551523.528999 9.240999 255 59 0 0.000000
387965.441000 3551523.860001 8.341000 255 94 0 0.000000
387966.210000 3551524.058998 8.021000 255 106 0 0.000000
387966.691000 3551524.418999 7.030001 255 145 0 0.000000
387967.000000 3551525.569000 3.170000 214 255 0 0.000000
387965.000000 3551523.348999 9.190001 255 61 0 0.000000
387965.371000 3551523.709000 8.100000 255 103 0 0.000000
387965.810000 3551524.069000 7.061001 255 144 0 0.000000
387966.740000 3551524.209000 7.021000 255 145 0 0.000000
387966.130000 3551525.150002 3.389999 223 255 0 0.000000
387966.990000 3551525.378998 3.010000 208 255 0 0.000000
387964.941000 3551523.198997 8.971001 255 69 0 0.000000
387965.861000 3551523.338997 8.959999 255 70 0 0.000000
387965.911000 3551523.838997 7.160000 255 139 0 0.000000
387966.831000 3551523.988998 7.100000 255 142 0 0.000000
387967.191000 3551524.410004 5.760000 255 194 0 0.000000
387967.090000 3551525.120003 3.120001 213 255 0 0.000000
387964.901000 3551523.040001 8.799999 255 76 0 0.000000
387965.810000 3551523.190002 8.750000 255 78 0 0.000000
387965.960000 3551523.639000 7.150999 255 140 0 0.000000
387966.331000 3551524.040001 5.850000 255 190 0 0.000000
387967.191000 3551524.230003 5.620001 255 199 0 0.000000
387966.981000 3551524.988998 2.681000 195 255 0 0.000000
387965.100000 3551522.800003 9.070000 255 65 0 0.000000
387965.770000 3551523.028999 8.561001 255 85 0 0.000000
387966.420000 3551523.268997 8.000000 255 107 0 0.000000
387966.780000 3551523.650002 6.740999 255 156 0 0.000000
387967.200000 3551524.028999 5.521000 255 204 0 0.000000
387966.971000 3551524.790001 2.510000 189 255 0 0.000000
387965.070000 3551522.639000 8.900999 255 72 0 0.000000
387965.710000 3551522.870003 8.341000 255 94 0 0.000000
387966.380000 3551523.110001 7.811001 255 115 0 0.000000
387965.651000 3551523.959000 4.091000 250 255 0 0.000000
387967.450000 3551523.730003 5.971001 255 186 0 0.000000
387966.990000 3551524.569000 2.431000 186 255 0 0.000000
387964.861000 3551522.528999 8.400999 255 91 0 0.000000
387965.850000 3551522.650002 8.510000 255 87 0 0.000000
387966.261000 3551522.980003 7.431000 255 129 0 0.000000
387966.700000 3551523.319000 6.320000 255 172 0 0.000000
387967.340000 3551523.588997 5.591000 255 201 0 0.000000
387966.941000 3551524.400002 2.131001 174 255 0 0.000000
387962.441000 3551522.639000 5.709999 255 196 0 0.000000
387964.890000 3551522.338997 8.361000 255 93 0 0.000000
387965.611000 3551522.550003 7.931000 255 109 0 0.000000
387966.170000 3551522.830002 7.120001 255 141 0 0.000000
387966.801000 3551523.088997 6.410000 255 169 0 0.000000
387967.441000 3551523.360001 5.701000 255 196 0 0.000000
387966.931000 3551524.190002 1.980000 169 255 0 0.000000
387964.950000 3551522.139000 8.370001 255 93 0 0.000000
387965.681000 3551522.348999 7.951000 255 109 0 0.000000
387966.420000 3551522.550003 7.541000 255 125 0 0.000000
387966.890000 3551522.870003 6.500000 255 166 0 0.000000
387967.100000 3551523.308998 4.760000 255 233 0 0.000000
387968.060000 3551523.448997 4.750000 255 234 0 0.000000
387964.890000 3551521.988998 8.150999 255 101 0 0.000000
387965.380000 3551522.268997 7.240999 255 136 0 0.000000
387966.420000 3551522.370003 7.440001 255 129 0 0.000000
387966.801000 3551522.720001 6.181000 255 177 0 0.000000
387967.140000 3551523.110001 4.740999 255 234 0 0.000000
387967.920000 3551523.330002 4.240999 255 253 0 0.000000
387964.471000 3551521.930000 7.240999 255 136 0 0.000000
387965.450000 3551522.069000 7.271000 255 136 0 0.000000
387966.280000 3551522.238998 7.030001 255 145 0 0.000000
387966.931000 3551522.488998 6.350000 255 171 0 0.000000
387967.210000 3551522.889000 4.760000 255 233 0 0.000000
387967.801000 3551523.190002 3.811001 240 255 0 0.000000
387964.041000 3551521.860001 6.330999 255 171 0 0.000000
387965.530000 3551521.848999 7.341000 255 133 0 0.000000
387966.380000 3551522.018997 7.131001 255 141 0 0.000000
387966.950000 3551522.290001 6.299999 255 173 0 0.000000
387966.880000 3551522.819000 3.841000 240 255 0 0.000000
387967.761000 3551523.010002 3.549999 229 255 0 0.000000
387964.151000 3551521.639000 6.440001 255 168 0 0.000000
387965.500000 3551521.680000 7.170000 255 139 0 0.000000
387966.390000 3551521.830002 7.061001 255 144 0 0.000000
387967.020000 3551522.080002 6.330999 255 171 0 0.000000
387967.441000 3551522.410004 5.091000 255 220 0 0.000000
387967.831000 3551522.778999 3.600000 231 255 0 0.000000
387968.051000 3551523.268997 1.451000 148 255 0 0.000000
387964.340000 3551521.400002 6.701000 255 157 0 0.000000
387965.441000 3551521.510002 6.940001 255 148 0 0.000000
387966.240000 3551521.698997 6.611000 255 161 0 0.000000
387966.941000 3551521.910004 6.041000 255 183 0 0.000000
387967.471000 3551522.198997 5.021000 255 223 0 0.000000
387968.011000 3551522.500000 3.951000 245 255 0 0.000000
387968.090000 3551523.040001 1.420000 147 255 0 0.000000
387964.140000 3551521.260002 6.201000 255 177 0 0.000000
387965.261000 3551521.370003 6.459999 255 167 0 0.000000
387966.221000 3551521.510002 6.459999 255 167 0 0.000000
387966.661000 3551521.808998 5.280001 255 213 0 0.000000
387966.490000 3551522.348999 2.480000 188 255 0 0.000000
387967.411000 3551522.528999 2.230000 178 255 0 0.000000
387964.161000 3551521.069000 6.150999 255 179 0 0.000000
387965.100000 3551521.220001 6.041000 255 183 0 0.000000
387965.820000 3551521.440002 5.480000 255 205 0 0.000000
387966.761000 3551521.588997 5.381001 255 209 0 0.000000
387967.380000 3551521.838997 4.549999 255 241 0 0.000000
387966.871000 3551522.528999 0.660000 117 255 0 0.000000
387963.700000 3551520.980003 5.139999 255 218 0 0.000000
387965.051000 3551521.050003 5.820000 255 192 0 0.000000
387966.090000 3551521.168999 5.971001 255 186 0 0.000000
387966.731000 3551521.410004 5.201000 255 216 0 0.000000
387967.011000 3551522.260002 0.889999 126 255 0 0.000000
387967.880000 3551522.480003 0.381001 106 255 0 0.000000
387965.070000 3551520.838997 5.771000 255 194 0 0.000000
387966.140000 3551520.959000 5.959999 255 186 0 0.000000
387966.770000 3551521.190002 5.190001 255 216 0 0.000000
387964.990000 3551520.668999 5.490999 255 204 0 0.000000
387965.570000 3551520.910004 4.600000 255 239 0 0.000000
387966.581000 3551521.050003 4.611000 255 239 0 0.000000
387964.590000 3551520.940002 2.330999 182 255 0 0.000000
387966.581000 3551520.848999 4.521000 255 242 0 0.000000
387964.581000 3551520.730003 2.181000 176 255 0 0.000000
387968.090000 3551522.680000 -6.580002 0 91 163 0.000000
387964.100000 3551526.319000 5.240999 255 214 0 0.000000
387964.950000 3551525.690002 6.820000 255 153 0 0.000000
387965.011000 3551525.470001 6.811001 255 154 0 0.000000
387965.000000 3551525.300003 6.660000 255 159 0 0.000000
387965.630000 3551526.338997 3.681000 234 255 0 0.000000
387966.310000 3551526.698997 2.881001 203 255 0 0.000000
387964.630000 3551524.690002 7.709999 255 118 0 0.000000
387965.090000 3551525.080002 6.690001 255 158 0 0.000000
387965.471000 3551525.528999 5.420000 255 207 0 0.000000
387963.820000 3551524.300003 7.889999 255 112 0 0.000000
387964.621000 3551524.518997 7.570000 255 124 0 0.000000
387965.721000 3551524.588997 7.861000 255 112 0 0.000000
387966.100000 3551525.018997 6.660000 255 159 0 0.000000
387964.670000 3551526.488998 1.190001 138 255 0 0.000000
387966.490000 3551526.198997 3.000000 208 255 0 0.000000
387963.761000 3551524.150002 7.670000 255 120 0 0.000000
387964.581000 3551524.360001 7.381001 255 131 0 0.000000
387966.000000 3551524.290001 8.320000 255 94 0 0.000000
387966.270000 3551524.760002 6.889999 255 150 0 0.000000
387966.840000 3551525.098999 6.041000 255 183 0 0.000000
387966.581000 3551525.948997 3.061001 210 255 0 0.000000
387963.801000 3551523.948997 7.631001 255 121 0 0.000000
387965.181000 3551523.930000 8.420000 255 91 0 0.000000
387966.041000 3551524.088997 8.280001 255 96 0 0.000000
387966.371000 3551524.528999 6.980000 255 147 0 0.000000
387966.871000 3551524.900002 5.971001 255 186 0 0.000000
387966.630000 3551525.720001 3.049999 210 255 0 0.000000
387967.551000 3551525.940002 2.791000 200 255 0 0.000000
387964.780000 3551523.400002 9.320000 255 56 0 0.000000
387965.161000 3551523.760002 8.271000 255 97 0 0.000000
387966.000000 3551523.940002 8.070000 255 104 0 0.000000
387966.411000 3551524.330002 6.940001 255 148 0 0.000000
387966.890000 3551524.698997 5.889999 255 189 0 0.000000
387966.740000 3551525.470001 3.150999 213 255 0 0.000000
387967.590000 3551525.709000 2.721001 197 255 0 0.000000
387964.111000 3551523.470001 7.990999 255 107 0 0.000000
387965.441000 3551523.470001 8.701000 255 80 0 0.000000
387965.920000 3551523.800003 7.799999 255 115 0 0.000000
387966.520000 3551524.088997 7.049999 255 144 0 0.000000
387966.890000 3551524.510002 5.760000 255 194 0 0.000000
387966.840000 3551525.209000 3.271000 219 255 0 0.000000
387964.081000 3551523.308998 7.820000 255 114 0 0.000000
387965.691000 3551523.198997 9.070000 255 65 0 0.000000
387966.060000 3551523.558998 7.971001 255 108 0 0.000000
387966.901000 3551524.980003 3.260000 218 255 0 0.000000
387964.590000 3551522.948997 8.660000 255 82 0 0.000000
387965.221000 3551523.209000 8.049999 255 105 0 0.000000
387965.990000 3551523.970001 5.631001 255 199 0 0.000000
387967.181000 3551524.000000 6.170000 255 178 0 0.000000
387966.801000 3551524.838997 2.881001 203 255 0 0.000000
387964.560000 3551522.778999 8.490999 255 88 0 0.000000
387965.291000 3551523.000000 8.070000 255 104 0 0.000000
387966.181000 3551523.160004 7.980000 255 108 0 0.000000
387966.721000 3551523.459000 7.131001 255 141 0 0.000000
387967.250000 3551523.790001 6.201000 255 177 0 0.000000
387966.770000 3551524.650002 2.631001 193 255 0 0.000000
387963.070000 3551523.098999 5.591000 255 201 0 0.000000
387965.221000 3551522.848999 7.830999 255 114 0 0.000000
387966.011000 3551523.050003 7.500000 255 127 0 0.000000
387966.590000 3551523.330002 6.730000 255 157 0 0.000000
387967.240000 3551523.598999 6.061001 255 183 0 0.000000
387966.731000 3551524.470001 2.389999 184 255 0 0.000000
387964.380000 3551522.488998 7.940001 255 109 0 0.000000
387965.471000 3551522.580002 8.209999 255 99 0 0.000000
387966.151000 3551522.808998 7.690001 255 119 0 0.000000
387966.390000 3551523.230003 6.160000 255 178 0 0.000000
387967.060000 3551523.500000 5.490999 255 204 0 0.000000
387966.721000 3551524.268997 2.209999 177 255 0 0.000000
387968.191000 3551524.190002 3.410000 224 255 0 0.000000
387963.791000 3551522.488998 6.721001 255 157 0 0.000000
387965.431000 3551522.418999 8.021000 255 106 0 0.000000
387966.320000 3551522.569000 7.951000 255 109 0 0.000000
387966.481000 3551523.010002 6.230000 255 176 0 0.000000
387966.820000 3551523.410004 4.791000 255 231 0 0.000000
387966.681000 3551524.080002 1.959999 168 255 0 0.000000
387968.151000 3551524.000000 3.170000 214 255 0 0.000000
387964.431000 3551522.110001 7.820000 255 114 0 0.000000
387965.411000 3551522.238998 7.870001 255 112 0 0.000000
387966.170000 3551522.440002 7.521000 255 126 0 0.000000
387966.541000 3551522.800003 6.250000 255 175 0 0.000000
387966.710000 3551523.260002 4.400999 255 247 0 0.000000
387967.630000 3551523.440002 4.250000 255 252 0 0.000000
387968.161000 3551523.800003 3.041000 210 255 0 0.000000
387963.890000 3551522.088997 6.690001 255 158 0 0.000000
387965.231000 3551522.120003 7.420000 255 130 0 0.000000
387965.310000 3551522.558998 5.561001 255 201 0 0.000000
387966.640000 3551522.580002 6.350000 255 171 0 0.000000
387966.911000 3551522.988998 4.750000 255 234 0 0.000000
387967.630000 3551523.238998 4.120001 252 255 0 0.000000
387968.310000 3551523.540001 3.299999 219 255 0 0.000000
387963.941000 3551521.889000 6.681000 255 158 0 0.000000
387965.331000 3551521.910004 7.500000 255 127 0 0.000000
387966.231000 3551522.058998 7.420000 255 130 0 0.000000
387966.450000 3551522.459000 5.799999 255 192 0 0.000000
387967.030000 3551522.750000 4.910000 255 227 0 0.000000
387966.361000 3551523.598999 0.701000 118 255 0 0.000000
387967.611000 3551523.660004 1.209999 139 255 0 0.000000
387963.681000 3551521.760002 6.080999 255 181 0 0.000000
387965.181000 3551521.768997 7.080999 255 143 0 0.000000
387966.261000 3551521.870003 7.350000 255 133 0 0.000000
387966.560000 3551522.230003 5.931000 255 187 0 0.000000
387967.081000 3551522.540001 4.889999 255 228 0 0.000000
387965.820000 3551523.610001 -0.849001 59 255 0 0.000000
387963.801000 3551521.550003 6.209999 255 177 0 0.000000
387965.320000 3551521.550003 7.271000 255 136 0 0.000000
387965.911000 3551521.800003 6.510000 255 165 0 0.000000
387966.670000 3551522.010002 6.049999 255 183 0 0.000000
387967.111000 3551522.330002 4.850000 255 229 0 0.000000
387967.731000 3551522.610001 3.951000 245 255 0 0.000000
387967.721000 3551523.190002 1.230000 139 255 0 0.000000
387963.111000 3551521.528999 4.771000 255 232 0 0.000000
387964.700000 3551521.528999 5.900999 255 189 0 0.000000
387965.971000 3551521.588997 6.521000 255 165 0 0.000000
387966.700000 3551521.800003 6.021000 255 184 0 0.000000
387967.020000 3551522.168999 4.490999 255 243 0 0.000000
387967.791000 3551522.389000 3.971001 246 255 0 0.000000
387967.471000 3551523.088997 0.370001 106 255 0 0.000000
387963.581000 3551521.209000 5.580999 255 201 0 0.000000
387964.691000 3551521.338997 5.760000 255 194 0 0.000000
387966.100000 3551521.370003 6.681000 255 158 0 0.000000
387966.000000 3551521.830002 4.291000 255 251 0 0.000000
387967.140000 3551521.930000 4.670000 255 237 0 0.000000
387966.901000 3551522.518997 1.521000 151 255 0 0.000000
387967.500000 3551522.860001 0.299999 103 255 0 0.000000
387964.831000 3551521.110001 5.959999 255 186 0 0.000000
387967.240000 3551521.698997 4.780001 255 232 0 0.000000
387967.740000 3551522.010002 3.591000 231 255 0 0.000000
387964.920000 3551520.900002 6.041000 255 183 0 0.000000
387965.810000 3551521.058998 5.850000 255 190 0 0.000000
387965.750000 3551521.510002 3.459999 225 255 0 0.000000
387964.920000 3551520.698997 5.920000 255 188 0 0.000000
387965.581000 3551520.930000 5.240999 255 214 0 0.000000
387965.791000 3551521.290001 3.451000 225 255 0 0.000000
387966.450000 3551523.230003 -6.610001 0 90 164 0.000000
387964.651000 3551520.569000 5.260000 255 213 0 0.000000
387965.340000 3551520.790001 4.600000 255 239 0 0.000000
387966.191000 3551520.980003 4.250000 255 252 0 0.000000
387965.401000 3551520.569000 4.611000 255 239 0 0.000000
387965.320000 3551520.778999 1.980000 169 255 0 0.000000
387964.261000 3551526.058998 6.010000 255 184 0 0.000000
387964.200000 3551525.910004 5.771000 255 194 0 0.000000
387963.971000 3551525.838997 5.170000 255 217 0 0.000000
387965.380000 3551526.488998 3.799999 239 255 0 0.000000
387965.090000 3551525.088997 7.280001 255 135 0 0.000000
387966.111000 3551526.628998 2.940001 205 255 0 0.000000
387965.611000 3551524.668999 8.201000 255 99 0 0.000000
387965.340000 3551525.430000 5.631001 255 199 0 0.000000
387964.600000 3551524.370003 7.971001 255 108 0 0.000000
387965.640000 3551524.470001 8.139999 255 102 0 0.000000
387965.350000 3551525.230003 5.530001 255 203 0 0.000000
387966.511000 3551525.278999 5.920000 255 188 0 0.000000
387963.030000 3551524.290001 6.750000 255 156 0 0.000000
387964.651000 3551524.180000 7.931000 255 109 0 0.000000
387965.640000 3551524.300003 8.021000 255 106 0 0.000000
387966.350000 3551524.550003 7.541000 255 125 0 0.000000
387966.560000 3551525.069000 5.910000 255 188 0 0.000000
387966.420000 3551525.848999 3.240999 217 255 0 0.000000
387963.051000 3551524.098999 6.681000 255 158 0 0.000000
387965.721000 3551524.088997 8.070000 255 104 0 0.000000
387966.301000 3551524.400002 7.299999 255 134 0 0.000000
387966.670000 3551524.838997 6.010000 255 184 0 0.000000
387966.441000 3551525.650002 3.120001 213 255 0 0.000000
387965.240000 3551523.580002 8.841000 255 74 0 0.000000
387965.981000 3551523.800003 8.480000 255 88 0 0.000000
387966.261000 3551524.238998 7.091000 255 142 0 0.000000
387966.570000 3551524.698997 5.660000 255 198 0 0.000000
387966.460000 3551525.440002 3.041000 210 255 0 0.000000
387967.431000 3551525.620003 2.900999 204 255 0 0.000000
387963.890000 3551523.418999 7.980000 255 108 0 0.000000
387965.270000 3551523.400002 8.791000 255 77 0 0.000000
387965.981000 3551523.620003 8.361000 255 93 0 0.000000
387966.331000 3551524.028999 7.111000 255 142 0 0.000000
387966.661000 3551524.470001 5.740999 255 195 0 0.000000
387966.541000 3551525.198997 3.091000 211 255 0 0.000000
387967.460000 3551525.400002 2.830999 201 255 0 0.000000
387963.780000 3551523.278999 7.660000 255 120 0 0.000000
387965.291000 3551523.220001 8.709999 255 80 0 0.000000
387965.971000 3551523.459000 8.230000 255 98 0 0.000000
387966.320000 3551523.848999 6.980000 255 147 0 0.000000
387966.630000 3551524.300003 5.521000 255 204 0 0.000000
