387974.094000 3551525.059998 5.143000 255 218 0 0.000000
387978.263000 3551525.079002 0.200001 99 255 0 0.000000
387977.496000 3551525.960999 4.146999 252 255 0 0.000000
387976.721000 3551526.175003 5.690001 255 197 0 0.000000
387975.937000 3551526.162003 6.421000 255 169 0 0.000000
387975.055000 3551525.841003 6.132000 255 180 0 0.000000
387974.080000 3551525.371002 5.402000 255 208 0 0.000000
387978.198000 3551525.316002 0.171000 98 255 0 0.000000
387977.389000 3551525.917000 3.216999 216 255 0 0.000000
387976.656000 3551526.345001 5.549000 255 202 0 0.000000
387975.900000 3551526.408997 6.556000 255 163 0 0.000000
387975.031000 3551526.111000 6.334999 255 171 0 0.000000
387973.804000 3551525.111000 3.886000 243 255 0 0.000000
387978.131000 3551525.540001 0.094999 95 255 0 0.000000
387977.143000 3551525.203003 -0.153999 85 255 0 0.000000
387976.604000 3551526.564003 5.559999 255 201 0 0.000000
387975.849000 3551526.621002 6.559999 255 163 0 0.000000
387973.758000 3551525.352997 3.931999 244 255 0 0.000000
387978.063000 3551525.785004 0.068001 94 255 0 0.000000
387977.083000 3551525.484001 -0.061001 89 255 0 0.000000
387976.368000 3551526.161003 3.327999 221 255 0 0.000000
387975.785000 3551526.806999 6.458000 255 167 0 0.000000
387974.924000 3551526.529999 6.297001 255 173 0 0.000000
387973.753000 3551525.682999 4.256001 255 252 0 0.000000
387977.994000 3551526.018997 -0.010000 91 255 0 0.000000
387977.014000 3551525.727997 -0.103001 88 255 0 0.000000
387976.486000 3551526.984001 5.480000 255 205 0 0.000000
387975.705000 3551526.953003 6.205000 255 177 0 0.000000
387974.781000 3551526.549004 5.601999 255 200 0 0.000000
387973.727000 3551525.968002 4.437000 255 246 0 0.000000
387977.931000 3551526.273003 0.030001 92 255 0 0.000000
387976.944000 3551525.934998 -0.243999 82 255 0 0.000000
387976.389000 3551527.056000 4.961000 255 225 0 0.000000
387975.591000 3551526.996002 5.608999 255 200 0 0.000000
387974.702000 3551526.696999 5.382000 255 209 0 0.000000
387973.682000 3551526.192001 4.469999 255 244 0 0.000000
387977.838000 3551526.328003 -0.725000 63 255 0 0.000000
387976.875000 3551526.158997 -0.330000 79 255 0 0.000000
387976.128000 3551526.639000 2.541000 190 255 0 0.000000
387975.528000 3551527.183998 5.516001 255 204 0 0.000000
387974.643000 3551526.898003 5.332001 255 210 0 0.000000
387973.662000 3551526.473000 4.679001 255 236 0 0.000000
387977.680000 3551526.032997 -2.986000 0 231 23 0.000000
387976.805000 3551526.394997 -0.393999 76 255 0 0.000000
387976.064000 3551526.864998 2.497999 189 255 0 0.000000
387975.470000 3551527.396004 5.488001 255 204 0 0.000000
387974.267000 3551526.473000 2.926001 205 255 0 0.000000
387973.597000 3551526.682999 4.615999 255 239 0 0.000000
387977.694000 3551526.772003 -0.978001 53 255 0 0.000000
387976.717000 3551526.556000 -0.754000 62 255 0 0.000000
387976.003000 3551527.089996 2.473000 187 255 0 0.000000
387974.997000 3551526.649002 1.736000 159 255 0 0.000000
387974.558000 3551527.375000 5.485001 255 204 0 0.000000
387973.583000 3551526.964996 4.851000 255 229 0 0.000000
387977.639000 3551527.085999 -0.698000 65 255 0 0.000000
387976.638000 3551526.755997 -0.962000 54 255 0 0.000000
387975.879000 3551527.142998 1.749001 160 255 0 0.000000
387974.981000 3551526.975998 2.107000 173 255 0 0.000000
387974.316000 3551527.234001 4.108000 251 255 0 0.000000
387973.115000 3551526.501999 2.268999 180 255 0 0.000000
387977.570000 3551527.316002 -0.775999 62 255 0 0.000000
387976.619000 3551527.162003 -0.282000 80 255 0 0.000000
387975.876000 3551527.525002 2.372999 183 255 0 0.000000
387974.916000 3551527.195000 2.055000 171 255 0 0.000000
387974.276000 3551527.480003 4.205999 255 255 0 0.000000
387973.042000 3551526.707001 2.164000 175 255 0 0.000000
387977.506000 3551527.572998 -0.729000 63 255 0 0.000000
387976.575000 3551527.469002 -0.007000 91 255 0 0.000000
387975.740000 3551527.561996 1.545000 151 255 0 0.000000
387974.789000 3551527.283997 1.454000 148 255 0 0.000000
387973.612000 3551526.628998 -0.157000 85 255 0 0.000000
387976.519000 3551527.745003 0.125000 96 255 0 0.000000
387974.990000 3551526.148003 -5.761000 0 123 131 0.000000
387974.762000 3551527.593002 1.747999 160 255 0 0.000000
387973.552000 3551526.885002 -0.138000 86 255 0 0.000000
387976.462000 3551528.007004 0.214001 100 255 0 0.000000
387975.409000 3551527.555000 -0.634001 67 255 0 0.000000
387974.750000 3551527.916000 2.146000 174 255 0 0.000000
387972.722000 3551525.871002 -5.528999 0 132 122 0.000000
387975.490000 3551528.128998 0.867001 125 255 0 0.000000
387974.636000 3551528.053001 1.697001 157 255 0 0.000000
387972.544000 3551525.986000 -6.271999 0 103 151 0.000000
387975.435000 3551528.372002 0.923000 127 255 0 0.000000
387973.644000 3551526.630997 -5.955999 0 115 139 0.000000
387972.502000 3551526.296997 -6.087002 0 110 144 0.000000
387971.722000 3551526.473000 -3.951000 0 193 61 0.000000
387972.435000 3551526.575996 -6.075001 0 110 144 0.000000
387973.487000 3551527.167000 -6.058998 0 111 143 0.000000
387972.715000 3551527.356003 -3.709000 0 202 52 0.000000
387972.606000 3551527.560997 -3.988001 0 192 62 0.000000
387972.270000 3551527.470001 -5.768000 0 122 132 0.000000
387973.315000 3551528.047997 -5.745001 0 124 130 0.000000
387972.463000 3551528.074997 -4.042999 0 189 65 0.000000
387973.243000 3551528.317001 -5.757999 0 123 131 0.000000
387972.453000 3551528.404999 -3.677000 0 204 50 0.000000
387974.383000 3551529.063004 -4.750000 0 162 92 0.000000
387973.156000 3551528.577003 -5.862000 0 118 136 0.000000
387976.436000 3551523.668999 5.266001 255 213 0 0.000000
387977.265000 3551524.168999 5.346001 255 210 0 0.000000
387976.431000 3551524.092003 5.813999 255 192 0 0.000000
387977.245000 3551524.559998 5.846001 255 191 0 0.000000
387975.462000 3551523.920998 5.403999 255 208 0 0.000000
387977.972000 3551524.415001 4.007000 247 255 0 0.000000
387977.217000 3551524.921997 6.247000 255 175 0 0.000000
387976.368000 3551524.696999 6.278000 255 174 0 0.000000
387975.429000 3551524.216003 5.583000 255 201 0 0.000000
387977.916000 3551524.667999 4.070000 249 255 0 0.000000
387977.176000 3551525.204002 6.437000 255 168 0 0.000000
387976.309000 3551524.889999 6.201000 255 177 0 0.000000
387975.481000 3551524.744003 6.469000 255 166 0 0.000000
387977.863000 3551524.950996 4.219000 255 254 0 0.000000
387977.104000 3551525.346001 6.193001 255 177 0 0.000000
387976.290000 3551525.237000 6.570000 255 163 0 0.000000
387975.377000 3551524.820000 6.032000 255 183 0 0.000000
387977.777000 3551524.989998 3.629000 232 255 0 0.000000
387977.064000 3551525.615997 6.372999 255 170 0 0.000000
387976.238000 3551525.441002 6.552999 255 163 0 0.000000
387975.371000 3551525.153999 6.396000 255 169 0 0.000000
387974.347000 3551524.542000 5.299999 255 212 0 0.000000
387977.789000 3551525.660004 5.046000 255 222 0 0.000000
387976.977000 3551525.689003 5.907000 255 188 0 0.000000
387976.201000 3551525.713997 6.719000 255 157 0 0.000000
387975.319000 3551525.375999 6.395000 255 169 0 0.000000
387976.861000 3551525.653000 5.080999 255 220 0 0.000000
387975.230000 3551525.490997 6.083000 255 181 0 0.000000
387973.835000 3551524.086998 2.525999 189 255 0 0.000000
387977.621000 3551525.803001 4.024000 248 255 0 0.000000
387976.847000 3551526.038002 5.625000 255 199 0 0.000000
387975.201000 3551525.761002 6.252001 255 175 0 0.000000
387974.206000 3551525.242996 5.385000 255 209 0 0.000000
387978.326000 3551525.184998 0.152000 97 255 0 0.000000
387977.342000 3551524.875000 0.009001 91 255 0 0.000000
387976.629000 3551525.648003 3.546000 229 255 0 0.000000
387976.006000 3551526.240997 6.339001 255 171 0 0.000000
387975.142000 3551525.966003 6.204000 255 177 0 0.000000
387974.137000 3551525.435997 5.275999 255 213 0 0.000000
387978.260000 3551525.424004 0.132000 97 255 0 0.000000
387977.404000 3551525.750999 2.236000 178 255 0 0.000000
387976.427000 3551525.345001 1.728001 159 255 0 0.000000
387975.972000 3551526.495003 6.493999 255 166 0 0.000000
387975.094000 3551526.179001 6.219000 255 176 0 0.000000
387978.188000 3551525.624001 -0.055000 89 255 0 0.000000
387977.199000 3551525.303001 -0.243999 82 255 0 0.000000
387976.675000 3551526.666000 5.527000 255 203 0 0.000000
387975.915000 3551526.699997 6.458000 255 167 0 0.000000
387975.050000 3551526.416000 6.281000 255 174 0 0.000000
387973.867000 3551525.542999 4.180000 254 255 0 0.000000
387978.124000 3551525.892998 0.014000 92 255 0 0.000000
387977.144000 3551525.601997 -0.073999 88 255 0 0.000000
387976.574000 3551526.727997 4.969999 255 225 0 0.000000
387975.849000 3551526.875000 6.327000 255 172 0 0.000000
387974.982000 3551526.593002 6.157000 255 179 0 0.000000
387973.807000 3551525.754997 4.135000 252 255 0 0.000000
387978.064000 3551526.165001 0.131001 97 255 0 0.000000
387977.078000 3551525.827003 -0.138000 86 255 0 0.000000
387976.305000 3551526.245003 2.407000 185 255 0 0.000000
387975.265000 3551525.706001 1.388000 145 255 0 0.000000
387974.873000 3551526.668999 5.700001 255 196 0 0.000000
387973.798000 3551526.052002 4.407000 255 246 0 0.000000
387977.962000 3551526.193001 -0.756001 62 255 0 0.000000
387976.999000 3551526.028000 -0.351999 78 255 0 0.000000
387976.443000 3551527.107002 4.738001 255 234 0 0.000000
387975.666000 3551527.107002 5.617001 255 200 0 0.000000
387974.784000 3551526.823997 5.441999 255 207 0 0.000000
387973.754000 3551526.309998 4.483000 255 243 0 0.000000
387977.893000 3551526.424004 -0.836000 59 255 0 0.000000
387976.938000 3551526.285004 -0.309000 80 255 0 0.000000
387976.204000 3551526.777000 2.634001 194 255 0 0.000000
387975.596000 3551527.274002 5.455000 255 206 0 0.000000
387974.724000 3551527.015999 5.377001 255 209 0 0.000000
387973.715000 3551526.543999 4.552999 255 241 0 0.000000
387977.809000 3551526.566002 -1.273001 42 255 0 0.000000
387976.853000 3551526.453003 -0.621000 68 255 0 0.000000
387976.140000 3551526.987999 2.566999 191 255 0 0.000000
387975.127000 3551526.527000 1.761999 160 255 0 0.000000
387974.702000 3551527.290001 5.599001 255 200 0 0.000000
387973.678000 3551526.792000 4.652000 255 237 0 0.000000
387977.762000 3551526.938004 -0.780001 61 255 0 0.000000
387976.776000 3551526.667999 -0.784000 61 255 0 0.000000
387975.732000 3551526.272003 -1.278000 41 255 0 0.000000
387974.918000 3551526.435997 0.452999 109 255 0 0.000000
387974.441000 3551527.117996 4.097000 251 255 0 0.000000
387973.640000 3551527.044998 4.752001 255 233 0 0.000000
387977.697000 3551527.196999 -0.743999 62 255 0 0.000000
387976.711000 3551526.918999 -0.777000 61 255 0 0.000000
387976.006000 3551527.417999 2.417000 185 255 0 0.000000
387975.043000 3551527.079002 2.065001 171 255 0 0.000000
387974.368000 3551527.306999 3.966000 246 255 0 0.000000
387973.161000 3551526.579002 2.138000 174 255 0 0.000000
387977.623000 3551527.405998 -0.915001 56 255 0 0.000000
387976.684000 3551527.291000 -0.237000 83 255 0 0.000000
387975.936000 3551527.619003 2.292000 180 255 0 0.000000
387974.947000 3551527.234001 1.746000 160 255 0 0.000000
387974.134000 3551527.209999 2.687000 195 255 0 0.000000
387973.099000 3551526.804001 2.105000 173 255 0 0.000000
387977.573000 3551527.725998 -0.582001 69 255 0 0.000000
387976.638000 3551527.594002 0.021000 92 255 0 0.000000
387975.773000 3551527.597000 1.195000 138 255 0 0.000000
387974.911000 3551527.514000 1.941999 167 255 0 0.000000
387973.677000 3551526.752998 -0.134001 86 255 0 0.000000
387976.586000 3551527.869003 0.177000 98 255 0 0.000000
387975.044000 3551526.280998 -5.719999 0 124 130 0.000000
387974.865000 3551527.768997 2.045000 171 255 0 0.000000
387973.607000 3551526.985001 -0.188000 84 255 0 0.000000
387976.527000 3551528.133003 0.257999 101 255 0 0.000000
387975.609000 3551527.986000 0.796000 122 255 0 0.000000
387974.811000 3551528.018997 2.101999 173 255 0 0.000000
387972.775000 3551526.010002 -5.492001 0 133 121 0.000000
387975.552000 3551528.232002 0.832001 124 255 0 0.000000
387973.777000 3551526.513000 -5.830000 0 120 134 0.000000
387972.591000 3551526.107002 -6.279999 0 103 151 0.000000
387975.488000 3551528.463997 0.811001 123 255 0 0.000000
387973.692000 3551526.764999 -5.941999 0 115 139 0.000000
387972.567000 3551526.453003 -5.966999 0 115 139 0.000000
387972.483000 3551526.709000 -6.062000 0 111 143 0.000000
387973.582000 3551527.363998 -5.695999 0 125 129 0.000000
387972.756000 3551527.457001 -3.790001 0 199 55 0.000000
387972.644000 3551527.669998 -4.070000 0 189 65 0.000000
387973.425000 3551527.897003 -5.801001 0 121 133 0.000000
387972.583000 3551527.941002 -4.035999 0 189 65 0.000000
387973.356000 3551528.172997 -5.780001 0 122 132 0.000000
387972.494000 3551528.178001 -4.169001 0 184 70 0.000000
387973.294000 3551528.457001 -5.712000 0 124 130 0.000000
387973.133000 3551528.983002 -5.841000 0 120 134 0.000000
387976.547000 3551523.806999 5.358999 255 210 0 0.000000
387977.315000 3551523.986000 4.528000 255 242 0 0.000000
387976.571000 3551524.331001 6.198999 255 177 0 0.000000
387975.614000 3551523.797997 5.388000 255 208 0 0.000000
387977.291000 3551524.376999 4.997999 255 224 0 0.000000
387975.556000 3551524.002998 5.332001 255 210 0 0.000000
387978.070000 3551524.510002 3.958000 245 255 0 0.000000
387977.295000 3551524.904999 5.879000 255 189 0 0.000000
387976.470000 3551524.799004 6.264999 255 174 0 0.000000
387975.627000 3551524.606003 6.393999 255 169 0 0.000000
387978.020000 3551524.806000 4.153000 252 255 0 0.000000
387977.263000 3551525.232002 6.201000 255 177 0 0.000000
387976.428000 3551525.052002 6.368000 255 171 0 0.000000
387975.579000 3551524.832001 6.417000 255 169 0 0.000000
387977.963000 3551525.038002 4.163000 253 255 0 0.000000
387977.220000 3551525.495003 6.344000 255 171 0 0.000000
387976.397000 3551525.337997 6.580000 255 163 0 0.000000
387975.479000 3551524.910004 6.006001 255 184 0 0.000000
387974.511000 3551524.447998 5.365999 255 210 0 0.000000
387977.882000 3551525.126999 3.715000 236 255 0 0.000000
387977.170000 3551525.722000 6.382000 255 170 0 0.000000
387976.353000 3551525.579002 6.660000 255 159 0 0.000000
387974.439000 3551524.623001 5.225000 255 215 0 0.000000
387977.833000 3551525.428001 3.931999 244 255 0 0.000000
387977.082000 3551525.803001 5.936001 255 187 0 0.000000
387976.299000 3551525.792999 6.646000 255 160 0 0.000000
387975.386000 3551525.378998 6.086000 255 181 0 0.000000
387974.493000 3551525.091003 5.945000 255 187 0 0.000000
387977.777000 3551525.657997 3.952000 245 255 0 0.000000
387976.959000 3551525.736000 5.020000 255 223 0 0.000000
387976.062000 3551525.422997 4.795000 255 231 0 0.000000
387975.328000 3551525.567001 6.016001 255 184 0 0.000000
387974.364000 3551525.125000 5.400000 255 208 0 0.000000
387977.674000 3551525.661003 3.157000 214 255 0 0.000000
387976.940000 3551526.111000 5.503000 255 204 0 0.000000
387976.171000 3551526.153000 6.415001 255 169 0 0.000000
387975.296000 3551525.849998 6.190001 255 177 0 0.000000
387974.325000 3551525.391998 5.503000 255 204 0 0.000000
387978.419000 3551525.278000 0.077000 94 255 0 0.000000
387976.904000 3551526.388000 5.716999 255 195 0 0.000000
387975.979000 3551525.949997 5.044001 255 222 0 0.000000
387975.248000 3551526.063004 6.202999 255 177 0 0.000000
387974.210000 3551525.464996 5.059999 255 221 0 0.000000
387978.354000 3551525.525002 0.084000 94 255 0 0.000000
387976.833000 3551526.544998 5.518000 255 204 0 0.000000
387976.074000 3551526.586998 6.466000 255 166 0 0.000000
387975.214000 3551526.315002 6.334000 255 171 0 0.000000
387973.941000 3551525.250999 3.639999 233 255 0 0.000000
387978.281000 3551525.730003 -0.093000 88 255 0 0.000000
387977.294000 3551525.418999 -0.247000 82 255 0 0.000000
387976.776000 3551526.759003 5.490999 255 204 0 0.000000
387975.942000 3551526.589996 5.723000 255 195 0 0.000000
387975.153000 3551526.513000 6.264999 255 174 0 0.000000
387974.030000 3551525.765999 4.569000 255 240 0 0.000000
387978.221000 3551526.018997 0.058001 94 255 0 0.000000
387977.237000 3551525.707001 -0.107000 87 255 0 0.000000
387976.364000 3551525.813004 1.263000 140 255 0 0.000000
387975.940000 3551526.939003 6.198999 255 177 0 0.000000
387975.039000 3551526.585999 5.784000 255 193 0 0.000000
387973.910000 3551525.861000 4.136999 252 255 0 0.000000
387978.157000 3551526.277000 0.104000 95 255 0 0.000000
387977.163000 3551525.913002 -0.268999 81 255 0 0.000000
387976.604000 3551526.996002 4.768999 255 233 0 0.000000
387975.366000 3551525.835999 1.431000 147 255 0 0.000000
387974.600000 3551525.981003 2.879999 203 255 0 0.000000
387973.858000 3551526.085999 4.139999 252 255 0 0.000000
387978.058000 3551526.306000 -0.759001 62 255 0 0.000000
387977.087000 3551526.108002 -0.472000 73 255 0 0.000000
387976.546000 3551527.202003 4.721001 255 234 0 0.000000
387975.773000 3551527.208000 5.629999 255 199 0 0.000000
387974.900000 3551526.942001 5.523001 255 203 0 0.000000
387973.886000 3551526.454002 4.649000 255 237 0 0.000000
387977.985000 3551526.515999 -0.921000 56 255 0 0.000000
387977.019000 3551526.344002 -0.523001 71 255 0 0.000000
387976.289000 3551526.837997 2.461000 187 255 0 0.000000
387975.515000 3551526.940002 3.808001 240 255 0 0.000000
387974.844000 3551527.149002 5.496000 255 204 0 0.000000
387973.831000 3551526.670998 4.636999 255 237 0 0.000000
387977.910000 3551526.733002 -1.079000 50 255 0 0.000000
387976.945000 3551526.564003 -0.658001 66 255 0 0.000000
387976.224000 3551527.059998 2.405001 185 255 0 0.000000
387974.966000 3551526.056999 -0.507999 71 255 0 0.000000
387974.807000 3551527.401001 5.617001 255 200 0 0.000000
387973.813000 3551526.957001 4.858000 255 229 0 0.000000
387977.876000 3551527.156998 -0.343000 78 255 0 0.000000
387976.872000 3551526.787003 -0.771000 62 255 0 0.000000
387976.180000 3551527.333000 2.566000 191 255 0 0.000000
387975.232000 3551527.021004 2.333000 182 255 0 0.000000
387974.555000 3551527.244003 4.181000 254 255 0 0.000000
387973.661000 3551527.011002 4.242001 255 253 0 0.000000
387976.814000 3551527.059998 -0.664000 65 255 0 0.000000
387976.116000 3551527.550003 2.518000 189 255 0 0.000000
387974.542000 3551525.922997 -3.073999 0 227 27 0.000000
387974.477000 3551527.420998 4.011999 247 255 0 0.000000
387973.621000 3551527.252998 4.323000 255 250 0 0.000000
387976.758000 3551527.331001 -0.556000 70 255 0 0.000000
387975.957000 3551527.531998 1.462000 148 255 0 0.000000
387975.077000 3551527.402000 2.000000 169 255 0 0.000000
387972.983000 3551525.140999 -6.129002 0 109 145 0.000000
387973.197000 3551526.906998 2.091999 172 255 0 0.000000
387976.737000 3551527.709000 0.042999 93 255 0 0.000000
387975.202000 3551526.125000 -5.736000 0 124 130 0.000000
387975.011000 3551527.621002 1.943001 167 255 0 0.000000
387973.774000 3551526.863998 -0.131001 86 255 0 0.000000
387975.701000 3551527.702003 0.096001 95 255 0 0.000000
387974.965000 3551527.884003 2.055000 171 255 0 0.000000
387972.956000 3551525.890999 -5.341000 0 139 115 0.000000
387975.554000 3551527.762001 -0.747999 62 255 0 0.000000
387974.906000 3551528.115997 2.063000 171 255 0 0.000000
387972.853000 3551526.112000 -5.576000 0 130 124 0.000000
387974.985000 3551526.955002 -5.747999 0 123 131 0.000000
387973.840000 3551526.588997 -6.044998 0 112 142 0.000000
387972.685000 3551526.236000 -6.248001 0 103 151 0.000000
387971.849000 3551526.339996 -4.431999 0 174 80 0.000000
387974.915000 3551527.231003 -5.738001 0 124 130 0.000000
387973.781000 3551526.886002 -5.945000 0 115 139 0.000000
387972.656000 3551526.572998 -5.976999 0 115 139 0.000000
387972.623000 3551526.900002 -5.733999 0 124 130 0.000000
387972.480000 3551527.084999 -6.196999 0 106 148 0.000000
387972.718000 3551527.762001 -4.197001 0 183 71 0.000000
387972.385000 3551527.703003 -5.893000 0 118 136 0.000000
387973.427000 3551528.264999 -5.927000 0 116 138 0.000000
387972.560000 3551528.261002 -4.340000 0 178 76 0.000000
387973.373000 3551528.557999 -5.804001 0 121 133 0.000000
387976.783000 3551523.736000 5.400000 255 208 0 0.000000
387976.730000 3551523.954002 5.388000 255 208 0 0.000000
387975.830000 3551523.655998 5.242001 255 214 0 0.000000
387977.491000 3551524.117996 4.496000 255 243 0 0.000000
387976.731000 3551524.402000 6.009001 255 184 0 0.000000
387975.789000 3551523.929001 5.355000 255 210 0 0.000000
387977.407000 3551524.209999 4.084000 250 255 0 0.000000
387976.691000 3551524.671997 6.143999 255 179 0 0.000000
387975.838000 3551524.461998 6.224001 255 176 0 0.000000
387977.275000 3551524.077003 2.989000 207 255 0 0.000000
387976.655000 3551524.950996 6.320000 255 172 0 0.000000
387975.805000 3551524.733002 6.372999 255 170 0 0.000000
387977.291000 3551524.670998 4.066000 249 255 0 0.000000
387975.756000 3551524.968002 6.406000 255 169 0 0.000000
387974.548000 3551523.901001 4.017000 247 255 0 0.000000
387977.298000 3551525.176003 4.934999 255 226 0 0.000000
387976.558000 3551525.410004 6.393000 255 169 0 0.000000
387975.720000 3551525.212997 6.506001 255 165 0 0.000000
387974.685000 3551524.569000 5.319000 255 211 0 0.000000
387978.028000 3551525.055000 3.032000 209 255 0 0.000000
387977.238000 3551525.378998 4.875000 255 228 0 0.000000
387976.511000 3551525.639000 6.434999 255 168 0 0.000000
387975.680000 3551525.453003 6.586000 255 162 0 0.000000
387974.710000 3551524.963997 5.832001 255 191 0 0.000000
387977.973000 3551525.331001 3.156000 214 255 0 0.000000
387977.194000 3551525.661003 5.046000 255 222 0 0.000000
387975.634000 3551525.690002 6.638000 255 160 0 0.000000
387974.681000 3551525.240997 5.987000 255 185 0 0.000000
387977.916000 3551525.579002 3.200001 216 255 0 0.000000
387977.138000 3551525.878998 5.032000 255 222 0 0.000000
387976.410000 3551526.084999 6.475000 255 166 0 0.000000
387975.539000 3551525.791000 6.280001 255 174 0 0.000000
387974.567000 3551525.318001 5.554001 255 202 0 0.000000
387977.853000 3551525.789001 3.127001 213 255 0 0.000000
387977.137000 3551526.306000 5.725000 255 195 0 0.000000
387976.362000 3551526.308998 6.511999 255 165 0 0.000000
387975.499000 3551526.030998 6.363001 255 171 0 0.000000
387974.599000 3551525.709999 6.098000 255 181 0 0.000000
387977.084000 3551526.524002 5.732000 255 195 0 0.000000
387976.308000 3551526.514999 6.490000 255 166 0 0.000000
387975.470000 3551526.293999 6.530001 255 164 0 0.000000
387974.573000 3551525.975998 6.263000 255 174 0 0.000000
387978.532000 3551525.641998 -0.031000 90 255 0 0.000000
387977.527000 3551525.239998 -0.514000 71 255 0 0.000000
387977.023000 3551526.720001 5.662001 255 198 0 0.000000
387976.269000 3551526.762001 6.615000 255 161 0 0.000000
387975.428000 3551526.526001 6.593000 255 162 0 0.000000
387974.298000 3551525.740997 4.783001 255 232 0 0.000000
387978.468000 3551525.898003 0.000000 91 255 0 0.000000
387977.483000 3551525.585999 -0.165001 85 255 0 0.000000
387976.907000 3551526.720001 4.888000 255 228 0 0.000000
387976.196000 3551526.913002 6.409000 255 169 0 0.000000
387975.337000 3551526.643997 6.278999 255 174 0 0.000000
387974.196000 3551525.864998 4.458000 255 245 0 0.000000
387978.400000 3551526.141998 -0.028999 90 255 0 0.000000
387977.414000 3551525.827003 -0.216999 83 255 0 0.000000
387976.843000 3551526.919998 4.799000 255 231 0 0.000000
387976.135000 3551527.109001 6.333000 255 171 0 0.000000
387975.305000 3551526.906998 6.438000 255 168 0 0.000000
387974.221000 3551526.242996 4.962000 255 225 0 0.000000
387978.337000 3551526.397003 0.014000 92 255 0 0.000000
387977.342000 3551526.030998 -0.371000 77 255 0 0.000000
387976.381000 3551525.857002 0.003000 91 255 0 0.000000
387975.980000 3551527.052002 5.374001 255 209 0 0.000000
387974.785000 3551526.120003 2.886000 204 255 0 0.000000
387974.118000 3551526.357002 4.618999 255 238 0 0.000000
387978.239000 3551526.428001 -0.844000 59 255 0 0.000000
387977.272000 3551526.254997 -0.457001 74 255 0 0.000000
387976.313000 3551526.087997 -0.056000 89 255 0 0.000000
387975.073000 3551527.051003 5.448999 255 206 0 0.000000
387974.073000 3551526.592003 4.667000 255 237 0 0.000000
387978.151000 3551526.564003 -1.337999 39 255 0 0.000000
387977.195000 3551526.461998 -0.646999 66 255 0 0.000000
387976.469000 3551526.975998 2.444000 186 255 0 0.000000
387975.554000 3551526.747002 2.533001 189 255 0 0.000000
387975.038000 3551527.308998 5.587000 255 201 0 0.000000
387974.037000 3551526.848999 4.780001 255 232 0 0.000000
387978.133000 3551527.093002 -0.174999 85 255 0 0.000000
387977.128000 3551526.708000 -0.666000 65 255 0 0.000000
387975.648000 3551525.097000 -6.051998 0 112 142 0.000000
387975.401000 3551526.762001 1.688000 157 255 0 0.000000
387974.963000 3551527.476997 5.415001 255 207 0 0.000000
387974.010000 3551527.110001 4.938999 255 226 0 0.000000
387978.072000 3551527.353996 -0.101999 88 255 0 0.000000
387977.058000 3551526.935997 -0.749001 62 255 0 0.000000
387976.270000 3551527.220001 1.546000 151 255 0 0.000000
387975.183000 3551526.651001 0.295000 103 255 0 0.000000
387974.406000 3551526.761002 1.771999 160 255 0 0.000000
387973.854000 3551527.157997 4.294001 255 251 0 0.000000
387977.993000 3551527.529999 -0.403000 76 255 0 0.000000
387977.003000 3551527.220001 -0.594000 68 255 0 0.000000
387976.204000 3551527.441002 1.488001 149 255 0 0.000000
387975.316000 3551527.301003 1.966000 168 255 0 0.000000
387974.663000 3551527.557999 4.024000 248 255 0 0.000000
387973.789000 3551527.361000 4.224001 255 254 0 0.000000
387976.941000 3551527.470001 -0.580000 69 255 0 0.000000
387976.119000 3551527.614998 1.219999 139 255 0 0.000000
387975.249000 3551527.516998 1.899000 165 255 0 0.000000
387974.022000 3551526.764999 -0.131001 86 255 0 0.000000
387976.923000 3551527.852997 0.051001 93 255 0 0.000000
387975.938000 3551527.568001 -0.033001 90 255 0 0.000000
387975.193000 3551527.754997 1.924000 166 255 0 0.000000
387973.951000 3551526.994003 -0.198999 84 255 0 0.000000
387975.891000 3551527.844002 0.120001 96 255 0 0.000000
387975.146000 3551528.008003 2.017000 170 255 0 0.000000
387973.118000 3551525.995003 -5.555000 0 130 124 0.000000
387975.074000 3551528.222000 1.920000 166 255 0 0.000000
387972.972000 3551526.161003 -6.071999 0 111 143 0.000000
387974.043000 3551526.761002 -5.961000 0 115 139 0.000000
387972.934000 3551526.473999 -5.872999 0 118 136 0.000000
387971.909000 3551526.315002 -5.204000 0 145 109 0.000000
387973.202000 3551527.248001 -3.584999 0 207 47 0.000000
387973.145000 3551527.521004 -3.531000 0 210 44 0.000000
387971.908000 3551527.371002 -4.055000 0 189 65 0.000000
387972.842000 3551527.833000 -4.629000 0 166 88 0.000000
387972.579000 3551527.848999 -5.900999 0 117 137 0.000000
387972.757000 3551528.416000 -4.313000 0 179 75 0.000000
387973.725000 3551528.927002 -4.607000 0 168 86 0.000000
387972.348000 3551528.642998 -6.029999 0 112 142 0.000000
387977.013000 3551523.707001 5.413000 255 207 0 0.000000
387976.957000 3551523.917000 5.368000 255 209 0 0.000000
387976.033000 3551523.541000 5.007999 255 223 0 0.000000
387976.904000 3551524.155998 5.388000 255 208 0 0.000000
387976.078000 3551524.092003 5.884001 255 189 0 0.000000
387977.669000 3551524.321999 4.521000 255 242 0 0.000000
387976.937000 3551524.709000 6.344999 255 171 0 0.000000
387976.063000 3551524.418999 6.198000 255 177 0 0.000000
387977.594000 3551524.470001 4.264999 255 252 0 0.000000
387976.876000 3551524.901001 6.254000 255 174 0 0.000000
387976.032000 3551524.708000 6.378000 255 170 0 0.000000
387977.539000 3551524.720001 4.306000 255 251 0 0.000000
387976.826000 3551525.136002 6.289000 255 174 0 0.000000
387975.981000 3551524.933998 6.384001 255 170 0 0.000000
387974.778000 3551523.867996 4.004999 247 255 0 0.000000
387977.526000 3551525.139000 4.912001 255 227 0 0.000000
387975.927000 3551525.133003 6.344999 255 171 0 0.000000
387974.983000 3551524.707001 5.802999 255 192 0 0.000000
387977.472000 3551525.378998 4.951000 255 225 0 0.000000
387975.884000 3551525.377998 6.417000 255 169 0 0.000000
387974.967000 3551525.016998 6.049999 255 183 0 0.000000
387977.430000 3551525.657997 5.125000 255 219 0 0.000000
387976.670000 3551525.787003 6.291000 255 174 0 0.000000
387975.813000 3551525.538002 6.243999 255 175 0 0.000000
387974.901000 3551525.196999 5.936001 255 187 0 0.000000
387977.389000 3551525.941002 5.327000 255 211 0 0.000000
387976.614000 3551525.986000 6.239000 255 175 0 0.000000
387975.798000 3551525.847000 6.540001 255 164 0 0.000000
387974.857000 3551525.429001 5.976999 255 186 0 0.000000
387977.363000 3551526.278999 5.711000 255 196 0 0.000000
387975.739000 3551526.043999 6.471001 255 166 0 0.000000
387974.842000 3551525.727997 6.216999 255 176 0 0.000000
387977.303000 3551526.466003 5.625000 255 199 0 0.000000
387976.549000 3551526.532997 6.636999 255 160 0 0.000000
387974.809000 3551525.968002 6.319000 255 172 0 0.000000
387977.249000 3551526.679001 5.618999 255 199 0 0.000000
387976.472000 3551526.666000 6.374001 255 170 0 0.000000
387975.256000 3551525.556000 3.434999 225 255 0 0.000000
387974.754000 3551526.170998 6.282000 255 174 0 0.000000
387978.704000 3551525.848000 -0.070999 88 255 0 0.000000
387977.720000 3551525.545998 -0.198000 84 255 0 0.000000
387976.817000 3551525.584999 0.913000 127 255 0 0.000000
387976.320000 3551526.613998 5.433001 255 207 0 0.000000
387975.560000 3551526.617996 6.254999 255 174 0 0.000000
387974.610000 3551526.206001 5.667000 255 198 0 0.000000
387978.635000 3551526.081001 -0.153000 85 255 0 0.000000
387977.651000 3551525.790001 -0.240999 82 255 0 0.000000
387976.673000 3551525.563004 -0.080999 88 255 0 0.000000
387976.274000 3551526.859001 5.514999 255 204 0 0.000000
387975.519000 3551526.861000 6.344999 255 171 0 0.000000
387974.559000 3551526.431999 5.679001 255 197 0 0.000000
387978.572000 3551526.337997 -0.103001 87 255 0 0.000000
387977.572000 3551525.966003 -0.507000 71 255 0 0.000000
387976.614000 3551525.814003 -0.054001 89 255 0 0.000000
387976.225000 3551527.074997 5.535000 255 203 0 0.000000
387975.457000 3551527.039001 6.247999 255 175 0 0.000000
387974.371000 3551526.380997 4.775000 255 232 0 0.000000
387978.508000 3551526.584000 -0.096001 88 255 0 0.000000
387977.497000 3551526.163002 -0.701000 64 255 0 0.000000
387976.550000 3551526.053001 -0.079000 88 255 0 0.000000
387976.180000 3551527.307999 5.607000 255 200 0 0.000000
387975.325000 3551527.082001 5.636999 255 199 0 0.000000
387974.319000 3551526.601997 4.778999 255 232 0 0.000000
387978.373000 3551526.417000 -1.815001 21 255 0 0.000000
387977.431000 3551526.420998 -0.691000 65 255 0 0.000000
387976.479000 3551526.285004 -0.158001 85 255 0 0.000000
387975.787000 3551526.719002 2.521999 189 255 0 0.000000
387975.268000 3551527.292000 5.601999 255 200 0 0.000000
387974.242000 3551526.788002 4.632999 255 238 0 0.000000
387977.364000 3551526.667000 -0.709999 64 255 0 0.000000
387976.360000 3551526.375000 -0.789000 61 255 0 0.000000
387975.488000 3551526.397003 0.360001 106 255 0 0.000000
387975.214000 3551527.502998 5.591000 255 201 0 0.000000
387973.559000 3551525.939003 0.667000 117 255 0 0.000000
387977.306000 3551526.938004 -0.615000 68 255 0 0.000000
387975.783000 3551525.223999 -6.532001 0 93 161 0.000000
387975.658000 3551527.151001 2.403000 185 255 0 0.000000
387974.961000 3551527.337997 4.120001 252 255 0 0.000000
387974.037000 3551527.058998 4.002001 247 255 0 0.000000
387977.239000 3551527.175003 -0.658001 66 255 0 0.000000
387976.426000 3551527.378998 1.336000 143 255 0 0.000000
387975.547000 3551527.269997 1.947001 167 255 0 0.000000
387974.910000 3551527.563004 4.139999 252 255 0 0.000000
387974.016000 3551527.334000 4.204000 255 255 0 0.000000
387977.170000 3551527.406998 -0.729000 63 255 0 0.000000
387976.162000 3551527.101997 -0.868000 58 255 0 0.000000
387975.471000 3551527.466003 1.792999 161 255 0 0.000000
387974.303000 3551526.811996 0.174000 98 255 0 0.000000
387973.247000 3551526.452003 -0.174999 85 255 0 0.000000
387977.105000 3551527.664001 -0.702000 64 255 0 0.000000
387976.167000 3551527.526001 -0.121000 87 255 0 0.000000
387975.419000 3551527.720001 1.861000 163 255 0 0.000000
387974.504000 3551527.509003 2.047001 171 255 0 0.000000
387975.366000 3551527.954002 1.892000 165 255 0 0.000000
387974.417000 3551527.682999 1.829000 163 255 0 0.000000
387975.311000 3551528.211998 1.959999 168 255 0 0.000000
387973.231000 3551526.149002 -6.000000 0 113 141 0.000000
387972.260000 3551526.079002 -4.975000 0 154 100 0.000000
387975.117000 3551528.194000 0.827999 124 255 0 0.000000
387973.209000 3551526.489998 -5.677999 0 126 128 0.000000
387975.079000 3551528.468002 1.014999 131 255 0 0.000000
387973.103000 3551526.709000 -5.936001 0 116 138 0.000000
387973.032000 3551526.991997 -5.930000 0 116 138 0.000000
387971.862000 3551526.643997 -6.118000 0 109 145 0.000000
387973.248000 3551527.656998 -4.024000 0 190 64 0.000000
387972.107000 3551527.301003 -4.306999 0 179 75 0.000000
387973.055000 3551528.109001 -4.406000 0 175 79 0.000000
387974.020000 3551528.599998 -4.764000 0 162 92 0.000000
387972.755000 3551528.091003 -5.913000 0 117 137 0.000000
387973.960000 3551528.886002 -4.683001 0 165 89 0.000000
387973.019000 3551528.763000 -3.750000 0 201 53 0.000000
387977.154000 3551523.963997 5.375000 255 209 0 0.000000
387977.107000 3551524.217003 5.448000 255 206 0 0.000000
387976.275000 3551524.125999 5.871000 255 189 0 0.000000
387977.839000 3551524.222000 4.094000 250 255 0 0.000000
387977.089000 3551524.578003 5.841000 255 191 0 0.000000
387976.273000 3551524.503998 6.313000 255 172 0 0.000000
387977.787000 3551524.488998 4.183001 254 255 0 0.000000
387977.078000 3551524.968002 6.318001 255 172 0 0.000000
387976.206000 3551524.685997 6.186001 255 177 0 0.000000
387975.226000 3551524.172997 5.417999 255 207 0 0.000000
387977.743000 3551524.772003 4.360001 255 249 0 0.000000
387977.035000 3551525.212997 6.415001 255 169 0 0.000000
387976.185000 3551524.982002 6.427999 255 168 0 0.000000
387975.320000 3551524.745003 6.436001 255 168 0 0.000000
387977.684000 3551524.991997 4.318001 255 250 0 0.000000
387976.974000 3551525.401001 6.316999 255 172 0 0.000000
387976.130000 3551525.193001 6.396000 255 169 0 0.000000
387975.262000 3551524.948997 6.378000 255 170 0 0.000000
387977.679000 3551525.455002 5.061001 255 221 0 0.000000
387976.929000 3551525.639999 6.385000 255 170 0 0.000000
387976.105000 3551525.481003 6.613001 255 161 0 0.000000
387975.227000 3551525.200996 6.482000 255 166 0 0.000000
387977.623000 3551525.665001 5.039000 255 222 0 0.000000
387976.839000 3551525.720001 5.976000 255 186 0 0.000000
387976.072000 3551525.731003 6.740999 255 156 0 0.000000
387974.849000 3551524.650002 4.174000 254 255 0 0.000000
387977.561000 3551525.873001 4.965000 255 225 0 0.000000
387976.531000 3551525.139000 3.365999 222 255 0 0.000000
387975.985000 3551525.865997 6.462000 255 167 0 0.000000
387974.792000 3551524.890999 4.170000 253 255 0 0.000000
387978.133000 3551524.916000 0.087000 94 255 0 0.000000
387977.443000 3551525.838997 4.113001 251 255 0 0.000000
387976.702000 3551526.061996 5.657000 255 198 0 0.000000
387975.920000 3551526.036003 6.337999 255 171 0 0.000000
387975.042000 3551525.762001 6.223000 255 176 0 0.000000
387978.072000 3551525.179001 0.145000 97 255 0 0.000000
387977.387000 3551526.065002 4.118000 252 255 0 0.000000
387976.633000 3551526.231003 5.495001 255 204 0 0.000000
387975.896000 3551526.310997 6.542000 255 163 0 0.000000
387974.996000 3551525.982002 6.240999 255 175 0 0.000000
387978.007000 3551525.431000 0.136999 97 255 0 0.000000
387977.186000 3551525.768997 2.270000 180 255 0 0.000000
387976.582000 3551526.466003 5.535999 255 203 0 0.000000
387975.851000 3551526.544998 6.598000 255 162 0 0.000000
387974.502000 3551525.301003 3.282000 219 255 0 0.000000
387977.938000 3551525.655998 0.048000 93 255 0 0.000000
387977.008000 3551525.589996 0.778999 121 255 0 0.000000
387976.524000 3551526.667999 5.486000 255 204 0 0.000000
387975.790000 3551526.731003 6.511000 255 165 0 0.000000
387974.892000 3551526.411003 6.225000 255 176 0 0.000000
387977.868000 3551525.882004 -0.034000 90 255 0 0.000000
387976.880000 3551525.603996 -0.062000 89 255 0 0.000000
387975.209000 3551525.758003 2.374001 183 255 0 0.000000
387974.737000 3551526.420998 5.532000 255 203 0 0.000000
387977.785000 3551526.039001 -0.381001 77 255 0 0.000000
387976.808000 3551525.820999 -0.176001 85 255 0 0.000000
387976.355000 3551526.938004 4.892000 255 228 0 0.000000
387975.646000 3551527.058998 6.180000 255 177 0 0.000000
387974.681000 3551526.626999 5.497000 255 204 0 0.000000
387977.697000 3551526.191002 -0.757000 62 255 0 0.000000
387976.741000 3551526.055000 -0.228001 83 255 0 0.000000
387976.036000 3551526.494003 2.421000 186 255 0 0.000000
387975.519000 3551527.111000 5.601000 255 200 0 0.000000
387974.611000 3551526.807999 5.372999 255 209 0 0.000000
387977.628000 3551526.433998 -0.809000 60 255 0 0.000000
387976.675000 3551526.305000 -0.243999 82 255 0 0.000000
387975.988000 3551526.759003 2.521000 189 255 0 0.000000
387975.460000 3551527.320999 5.566000 255 201 0 0.000000
387974.449000 3551526.837997 4.673000 255 237 0 0.000000
387977.555000 3551526.654999 -0.931000 55 255 0 0.000000
387976.602000 3551526.525002 -0.356001 77 255 0 0.000000
387975.921000 3551526.970001 2.441999 186 255 0 0.000000
387975.210000 3551527.146004 4.082001 250 255 0 0.000000
387977.508000 3551526.973000 -0.646000 66 255 0 0.000000
387976.504000 3551526.674004 -0.754000 62 255 0 0.000000
387975.853000 3551527.180000 2.355000 183 255 0 0.000000
387975.135000 3551527.329002 3.929001 244 255 0 0.000000
387974.243000 3551527.110001 4.040001 249 255 0 0.000000
387977.443000 3551527.218002 -0.658001 66 255 0 0.000000
387976.433000 3551526.902000 -0.843000 59 255 0 0.000000
387975.796000 3551527.412003 2.362000 183 255 0 0.000000
387974.827000 3551527.085999 2.077000 172 255 0 0.000000
387974.219000 3551527.377998 4.224001 255 254 0 0.000000
387977.377000 3551527.459999 -0.676001 65 255 0 0.000000
387976.438000 3551527.327003 -0.082001 88 255 0 0.000000
387975.657000 3551527.472000 1.650000 155 255 0 0.000000
387974.734000 3551527.255997 1.819000 162 255 0 0.000000
387974.148000 3551527.570000 4.115000 251 255 0 0.000000
387977.321000 3551527.736000 -0.541000 71 255 0 0.000000
387976.388000 3551527.600998 0.056000 94 255 0 0.000000
387974.728000 3551525.964996 -5.844000 0 119 135 0.000000
387974.683000 3551527.500000 1.868000 164 255 0 0.000000
387976.330000 3551527.851997 0.099001 95 255 0 0.000000
387974.664000 3551526.253998 -5.790001 0 121 133 0.000000
387974.606000 3551527.700996 1.733000 159 255 0 0.000000
387973.324000 3551526.970001 -0.232000 83 255 0 0.000000
387976.269000 3551528.105003 0.128000 96 255 0 0.000000
387975.383000 3551528.001999 0.856001 124 255 0 0.000000
387974.563000 3551527.967003 1.849001 163 255 0 0.000000
387975.321000 3551528.235001 0.833000 124 255 0 0.000000
387973.417000 3551526.528999 -5.698000 0 125 129 0.000000
387975.273000 3551528.495003 0.945000 128 255 0 0.000000
387973.316000 3551526.755997 -5.919001 0 117 137 0.000000
387972.131000 3551526.385002 -6.195999 0 106 148 0.000000
387973.600000 3551527.536003 -3.509001 0 210 44 0.000000
387972.253000 3551526.904999 -5.075001 0 149 105 0.000000
387972.025000 3551526.977997 -6.008999 0 113 141 0.000000
387972.388000 3551527.771004 -3.513000 0 210 44 0.000000
387973.325000 3551528.219002 -4.016001 0 190 64 0.000000
387974.154000 3551528.901001 -4.812000 0 160 94 0.000000
387972.916000 3551528.431000 -5.778999 0 122 132 0.000000
387976.467000 3551523.738998 5.368999 255 209 0 0.000000
387977.219000 3551523.877998 4.445999 255 245 0 0.000000
387976.461000 3551524.106003 5.771000 255 194 0 0.000000
387975.526000 3551523.727997 5.414000 255 207 0 0.000000
387977.242000 3551524.417999 5.341000 255 210 0 0.000000
387976.472000 3551524.526001 6.333000 255 171 0 0.000000
387975.473000 3551523.946999 5.393999 255 208 0 0.000000
387977.976000 3551524.449997 4.028000 248 255 0 0.000000
387977.235000 3551524.834000 5.884001 255 189 0 0.000000
387976.403000 3551524.698997 6.184999 255 177 0 0.000000
387975.449000 3551524.250000 5.597000 255 201 0 0.000000
387977.927000 3551524.724998 4.157000 253 255 0 0.000000
387977.214000 3551525.175003 6.242001 255 175 0 0.000000
387976.369000 3551524.968002 6.330000 255 172 0 0.000000
387975.512000 3551524.760002 6.421000 255 169 0 0.000000
387977.873000 3551524.970001 4.204000 255 255 0 0.000000
387977.151000 3551525.348999 6.113001 255 180 0 0.000000
387976.356000 3551525.292999 6.653000 255 160 0 0.000000
387975.409000 3551524.845001 6.033001 255 183 0 0.000000
387977.777000 3551525.026001 3.641001 233 255 0 0.000000
387977.121000 3551525.655998 6.374001 255 170 0 0.000000
387976.300000 3551525.502998 6.617001 255 161 0 0.000000
387975.406000 3551525.181999 6.365000 255 171 0 0.000000
387977.818000 3551525.683998 5.033001 255 222 0 0.000000
387977.030000 3551525.727997 5.937000 255 187 0 0.000000
387976.269000 3551525.760002 6.770000 255 155 0 0.000000
387975.354000 3551525.382004 6.336000 255 171 0 0.000000
387977.690000 3551525.601997 4.021000 248 255 0 0.000000
387976.889000 3551525.667999 5.027000 255 222 0 0.000000
387976.040000 3551525.508003 5.285000 255 213 0 0.000000
387975.269000 3551525.528000 6.101999 255 180 0 0.000000
387977.631000 3551525.827003 4.006001 247 255 0 0.000000
387976.630000 3551525.249001 2.914000 204 255 0 0.000000
387976.046000 3551525.877998 5.764999 255 194 0 0.000000
387975.232000 3551525.771004 6.186001 255 177 0 0.000000
387978.273000 3551525.206001 0.172001 98 255 0 0.000000
387977.577000 3551526.063004 4.042999 249 255 0 0.000000
387976.629000 3551525.651001 3.481001 227 255 0 0.000000
387976.028000 3551526.178001 6.037001 255 183 0 0.000000
387975.187000 3551525.996002 6.221001 255 176 0 0.000000
387978.208000 3551525.459999 0.167999 98 255 0 0.000000
387977.381000 3551525.778000 2.232000 178 255 0 0.000000
387976.776000 3551526.483002 5.528000 255 203 0 0.000000
387976.026000 3551526.519997 6.445999 255 168 0 0.000000
387975.138000 3551526.221001 6.235001 255 175 0 0.000000
387978.132000 3551525.638000 -0.070000 88 255 0 0.000000
387977.137000 3551525.345001 -0.148001 85 255 0 0.000000
387976.719000 3551526.678001 5.471001 255 205 0 0.000000
387975.977000 3551526.726997 6.450001 255 167 0 0.000000
387975.094000 3551526.435997 6.261999 255 174 0 0.000000
387978.071000 3551525.908997 0.000999 91 255 0 0.000000
387977.076000 3551525.612999 -0.096001 88 255 0 0.000000
387976.601000 3551526.728996 4.863001 255 229 0 0.000000
387975.906000 3551526.901001 6.302999 255 173 0 0.000000
387974.975000 3551526.524002 5.816000 255 192 0 0.000000
387978.008000 3551526.162003 0.014999 92 255 0 0.000000
387977.009000 3551525.846001 -0.153999 85 255 0 0.000000
387976.284000 3551526.263000 2.355000 183 255 0 0.000000
387975.230000 3551525.748001 1.434000 147 255 0 0.000000
387974.901000 3551526.695000 5.667000 255 198 0 0.000000
387977.909000 3551526.267998 -0.555000 70 255 0 0.000000
387976.928000 3551526.043999 -0.365000 77 255 0 0.000000
387976.476000 3551527.135002 4.719000 255 234 0 0.000000
387975.719000 3551527.153000 5.660999 255 198 0 0.000000
387974.800000 3551526.827003 5.347000 255 210 0 0.000000
387977.830000 3551526.449997 -0.806000 60 255 0 0.000000
387976.876000 3551526.317001 -0.250999 82 255 0 0.000000
387976.191000 3551526.783997 2.563999 191 255 0 0.000000
387975.436000 3551526.886002 3.889999 243 255 0 0.000000
387974.773000 3551527.075996 5.492001 255 204 0 0.000000
387977.753000 3551526.664001 -0.964001 54 255 0 0.000000
387976.784000 3551526.488998 -0.575001 69 255 0 0.000000
387976.122000 3551526.996002 2.469999 187 255 0 0.000000
387975.101000 3551526.564003 1.788000 161 255 0 0.000000
387974.731000 3551527.316002 5.565001 255 201 0 0.000000
387977.702000 3551526.968002 -0.749001 62 255 0 0.000000
387976.699000 3551526.680000 -0.809000 60 255 0 0.000000
387976.064000 3551527.227997 2.475000 187 255 0 0.000000
387974.869000 3551526.467003 0.495001 111 255 0 0.000000
387974.452000 3551527.150002 4.122999 252 255 0 0.000000
387977.638000 3551527.219002 -0.733999 63 255 0 0.000000
387976.676000 3551527.036003 -0.361000 77 255 0 0.000000
387976.003000 3551527.452003 2.445999 186 255 0 0.000000
387975.031000 3551527.117996 2.127001 174 255 0 0.000000
387974.367000 3551527.321999 3.929001 244 255 0 0.000000
387977.561000 3551527.435997 -0.891001 57 255 0 0.000000
387976.619000 3551527.309998 -0.264000 81 255 0 0.000000
387975.839000 3551527.467003 1.518999 151 255 0 0.000000
387974.939000 3551527.297997 1.884001 165 255 0 0.000000
387973.654000 3551526.525002 -0.152000 85 255 0 0.000000
387977.517000 3551527.746002 -0.591999 68 255 0 0.000000
387976.595000 3551527.640999 0.139999 97 255 0 0.000000
387975.737000 3551527.609001 1.146999 136 255 0 0.000000
387974.894000 3551527.543999 1.966999 168 255 0 0.000000
387973.600000 3551526.766998 -0.132000 86 255 0 0.000000
387976.538000 3551527.903000 0.215000 100 255 0 0.000000
387974.871000 3551526.287003 -5.754999 0 123 131 0.000000
387974.853000 3551527.811996 2.099001 173 255 0 0.000000
387973.524000 3551526.999001 -0.222000 83 255 0 0.000000
387976.478000 3551528.151001 0.243999 101 255 0 0.000000
387975.572000 3551528.002998 0.771999 121 255 0 0.000000
387974.806000 3551528.059998 2.172001 176 255 0 0.000000
387972.453000 3551525.816002 -6.326000 0 100 154 0.000000
387975.500000 3551528.219002 0.674000 118 255 0 0.000000
387973.583000 3551526.487000 -5.971001 0 115 139 0.000000
387972.377000 3551526.086998 -6.365002 0 99 155 0.000000
387975.444000 3551528.475998 0.733999 120 255 0 0.000000
387973.554000 3551526.834000 -5.674999 0 126 128 0.000000
387972.376000 3551526.464996 -5.954000 0 115 139 0.000000
387972.661000 3551527.191002 -3.867001 0 196 58 0.000000
387973.373000 3551527.313004 -5.971001 0 115 139 0.000000
387972.627000 3551527.483002 -3.691999 0 203 51 0.000000
387972.492000 3551527.683998 -4.066999 0 189 65 0.000000
387973.276000 3551527.927002 -5.671000 0 126 128 0.000000
387972.475000 3551527.991997 -3.792999 0 199 55 0.000000
387973.189000 3551528.184998 -5.774000 0 122 132 0.000000
387972.372000 3551528.222000 -3.997999 0 191 63 0.000000
387973.107000 3551528.443001 -5.850000 0 119 135 0.000000
387973.063000 3551528.744003 -5.684999 0 126 128 0.000000
387972.971000 3551528.990997 -5.820000 0 121 133 0.000000
387976.692000 3551523.754997 5.416000 255 207 0 0.000000
387977.437000 3551523.875000 4.430000 255 246 0 0.000000
387976.623000 3551523.924004 5.257000 255 213 0 0.000000
387975.725000 3551523.677002 5.264000 255 213 0 0.000000
387977.357000 3551524.000000 4.122999 252 255 0 0.000000
387976.673000 3551524.478996 6.187000 255 177 0 0.000000
387975.687000 3551523.940002 5.362000 255 210 0 0.000000
387976.613000 3551524.681999 6.120001 255 180 0 0.000000
387975.762000 3551524.503998 6.296000 255 173 0 0.000000
387978.139000 3551524.685997 4.025000 248 255 0 0.000000
387977.230000 3551524.415001 3.959000 245 255 0 0.000000
387976.572000 3551524.931000 6.205000 255 177 0 0.000000
387975.711000 3551524.719002 6.285999 255 174 0 0.000000
387978.087000 3551524.940002 4.097000 251 255 0 0.000000
387977.118000 3551524.441002 3.330999 221 255 0 0.000000
387976.535000 3551525.192001 6.333000 255 171 0 0.000000
387975.671000 3551524.959000 6.349001 255 171 0 0.000000
387978.002000 3551525.039001 3.684999 234 255 0 0.000000
387977.200000 3551525.165001 4.851999 255 229 0 0.000000
387976.502000 3551525.458000 6.483000 255 166 0 0.000000
387975.638000 3551525.218002 6.472000 255 166 0 0.000000
387977.903000 3551525.082001 3.076000 211 255 0 0.000000
387977.154000 3551525.416000 4.934000 255 226 0 0.000000
387976.413000 3551525.567001 6.156000 255 179 0 0.000000
387975.609000 3551525.475998 6.605000 255 161 0 0.000000
387977.904000 3551525.584000 3.943001 245 255 0 0.000000
387977.105000 3551525.667999 5.011000 255 223 0 0.000000
387975.518000 3551525.607002 6.325001 255 172 0 0.000000
387977.796000 3551525.591003 3.216000 216 255 0 0.000000
387977.046000 3551525.862999 4.937000 255 226 0 0.000000
387976.354000 3551526.110001 6.511999 255 165 0 0.000000
387975.353000 3551525.555000 5.509001 255 204 0 0.000000
