387988.257000 3551525.678001 2.354000 183 255 0 0.000000
387988.462000 3551524.922997 2.121000 174 255 0 0.000000
387988.431000 3551524.624001 1.523001 151 255 0 0.000000
387987.616000 3551524.852997 -1.735001 24 255 0 0.000000
387985.166000 3551528.582001 -7.062000 0 72 182 0.000000
387985.217000 3551528.255997 -7.271000 0 64 190 0.000000
387985.216000 3551528.029999 -7.564999 0 53 201 0.000000
387989.067000 3551527.265999 2.365000 183 255 0 0.000000
387987.798000 3551526.473000 2.504000 189 255 0 0.000000
387988.275000 3551524.827003 2.128000 174 255 0 0.000000
387989.926000 3551524.570999 2.374001 183 255 0 0.000000
387988.247000 3551524.698997 1.808001 162 255 0 0.000000
387987.744000 3551525.306999 0.461000 109 255 0 0.000000
387988.380000 3551528.653999 -7.131001 0 70 184 0.000000
387986.539000 3551528.907997 2.330999 182 255 0 0.000000
387987.005000 3551527.800003 2.723000 197 255 0 0.000000
387987.050000 3551527.532997 2.496000 188 255 0 0.000000
387987.610000 3551526.069000 2.764999 198 255 0 0.000000
387987.345000 3551526.408997 2.087999 172 255 0 0.000000
387987.150000 3551526.608002 1.511000 150 255 0 0.000000
387989.238000 3551525.547997 2.378000 183 255 0 0.000000
387987.699000 3551524.985001 1.531000 151 255 0 0.000000
387986.612000 3551526.486000 -1.013000 52 255 0 0.000000
387987.696000 3551529.389999 2.705000 196 255 0 0.000000
387986.428000 3551528.505997 2.898001 204 255 0 0.000000
387986.691000 3551527.441002 2.419001 185 255 0 0.000000
387988.259000 3551527.476997 2.416000 185 255 0 0.000000
387987.376000 3551525.740997 2.877001 203 255 0 0.000000
387988.885000 3551525.806999 2.851000 202 255 0 0.000000
387988.354000 3551526.153000 0.886000 126 255 0 0.000000
387988.900000 3551524.848999 1.514000 150 255 0 0.000000
387988.982000 3551524.306000 1.124001 135 255 0 0.000000
387987.468000 3551529.330002 2.475000 187 255 0 0.000000
387986.390000 3551528.067001 2.945999 206 255 0 0.000000
387988.016000 3551527.992996 3.021999 209 255 0 0.000000
387989.533000 3551527.931000 2.666000 195 255 0 0.000000
387986.428000 3551527.624001 2.427000 186 255 0 0.000000
387989.152000 3551528.421997 1.448000 148 255 0 0.000000
387988.733000 3551525.589996 2.754999 198 255 0 0.000000
387988.710000 3551524.888000 1.636000 155 255 0 0.000000
387988.702000 3551524.325996 0.818001 123 255 0 0.000000
387987.989000 3551525.144997 -1.205000 44 255 0 0.000000
387989.349000 3551527.528000 2.351000 183 255 0 0.000000
387986.560000 3551526.432999 2.313000 181 255 0 0.000000
387988.478000 3551525.516998 2.617001 193 255 0 0.000000
387988.339000 3551525.612000 2.122000 174 255 0 0.000000
387988.629000 3551524.643997 2.061001 171 255 0 0.000000
387988.504000 3551524.708000 1.591999 153 255 0 0.000000
387988.505000 3551524.114998 0.795000 122 255 0 0.000000
387987.698000 3551524.887001 -1.639999 28 255 0 0.000000
387985.239000 3551528.734001 -7.083000 0 71 183 0.000000
387985.324000 3551528.332001 -7.216000 0 66 188 0.000000
387985.289000 3551528.149002 -7.568001 0 53 201 0.000000
387987.177000 3551528.439003 2.389999 184 255 0 0.000000
387987.376000 3551527.836998 2.410999 185 255 0 0.000000
387989.155000 3551527.198997 2.472000 187 255 0 0.000000
387987.849000 3551526.482002 2.593000 192 255 0 0.000000
387989.077000 3551526.992996 1.785999 161 255 0 0.000000
387988.282000 3551524.836998 2.208000 177 255 0 0.000000
387987.730000 3551525.350998 0.507000 111 255 0 0.000000
387989.449000 3551525.666000 2.694000 196 255 0 0.000000
387989.454000 3551525.464996 2.434999 186 255 0 0.000000
387988.079000 3551524.767998 2.143000 174 255 0 0.000000
387986.636000 3551526.609001 -1.573000 30 255 0 0.000000
387988.623000 3551528.189003 2.742001 198 255 0 0.000000
387987.138000 3551527.801003 2.598000 192 255 0 0.000000
387989.322000 3551526.070999 3.065001 210 255 0 0.000000
387989.328000 3551525.873001 2.809999 201 255 0 0.000000
387987.440000 3551526.414001 1.969999 168 255 0 0.000000
387989.370000 3551525.594002 2.615000 193 255 0 0.000000
387987.675000 3551525.545998 1.802999 161 255 0 0.000000
387986.567000 3551527.157997 -0.823000 59 255 0 0.000000
387986.546000 3551526.557999 -1.687000 26 255 0 0.000000
387986.565000 3551529.088997 2.378000 183 255 0 0.000000
387987.010000 3551527.973000 2.778000 199 255 0 0.000000
387987.083000 3551527.636002 2.610001 192 255 0 0.000000
387989.263000 3551525.903999 3.084999 211 255 0 0.000000
387989.285000 3551525.670998 2.853001 202 255 0 0.000000
387987.325000 3551526.366997 1.884001 165 255 0 0.000000
387989.185000 3551525.696999 2.412001 185 255 0 0.000000
387989.258000 3551525.348000 2.271000 180 255 0 0.000000
387986.558000 3551526.690002 -1.007999 53 255 0 0.000000
387986.421000 3551528.908997 2.440001 186 255 0 0.000000
387987.024000 3551527.467003 3.075001 210 255 0 0.000000
387988.367000 3551527.946999 2.723000 197 255 0 0.000000
387986.976000 3551527.379997 2.731001 198 255 0 0.000000
387988.804000 3551526.605003 2.903000 204 255 0 0.000000
387989.085000 3551525.605003 2.833000 201 255 0 0.000000
387988.935000 3551525.738998 2.306999 181 255 0 0.000000
387987.211000 3551525.931000 1.733999 159 255 0 0.000000
387986.404000 3551526.940002 -0.389000 77 255 0 0.000000
387986.356000 3551526.613998 -1.010000 52 255 0 0.000000
387986.537000 3551528.258003 2.872000 203 255 0 0.000000
387989.742000 3551527.674004 2.466000 187 255 0 0.000000
387987.291000 3551525.757004 2.670000 195 255 0 0.000000
387988.376000 3551526.132004 1.108000 134 255 0 0.000000
387988.313000 3551526.060997 0.726999 120 255 0 0.000000
387986.152000 3551527.039001 -0.513000 71 255 0 0.000000
387988.820000 3551524.778999 1.351999 144 255 0 0.000000
387985.872000 3551527.934998 -7.604000 0 51 203 0.000000
387987.555000 3551529.567001 2.745001 198 255 0 0.000000
387989.583000 3551527.891998 2.684999 195 255 0 0.000000
387986.494000 3551527.663002 2.443001 186 255 0 0.000000
387989.605000 3551527.652000 2.451000 186 255 0 0.000000
387989.209000 3551528.398003 1.459999 148 255 0 0.000000
387988.820000 3551525.625000 3.159000 214 255 0 0.000000
387988.756000 3551525.575996 2.785999 199 255 0 0.000000
387986.707000 3551526.448997 1.684000 157 255 0 0.000000
387988.685000 3551524.946999 1.606001 154 255 0 0.000000
387988.680000 3551524.760002 1.336000 143 255 0 0.000000
387988.681000 3551524.356003 0.822001 123 255 0 0.000000
387987.357000 3551526.042999 -2.902000 0 234 20 0.000000
387986.349000 3551527.880997 -5.047001 0 151 103 0.000000
387985.740000 3551527.887001 -7.594002 0 52 202 0.000000
387987.504000 3551529.526001 2.665001 195 255 0 0.000000
387986.487000 3551527.731003 2.709000 196 255 0 0.000000
387989.537000 3551527.847000 2.628000 193 255 0 0.000000
387986.469000 3551527.578003 2.406000 185 255 0 0.000000
387988.141000 3551527.351997 2.577999 192 255 0 0.000000
387989.607000 3551527.489998 2.476999 187 255 0 0.000000
387989.172000 3551528.330002 1.406000 146 255 0 0.000000
387988.656000 3551525.834999 2.895000 204 255 0 0.000000
387988.712000 3551525.526001 2.723000 197 255 0 0.000000
387986.684000 3551526.361000 1.645000 155 255 0 0.000000
387988.837000 3551524.679001 2.149000 174 255 0 0.000000
387988.673000 3551524.834999 1.596001 154 255 0 0.000000
387988.676000 3551524.430000 1.079000 133 255 0 0.000000
387988.668000 3551524.247002 0.806999 123 255 0 0.000000
387987.977000 3551525.074997 -1.237000 44 255 0 0.000000
387987.335000 3551525.973000 -2.954000 0 231 23 0.000000
387986.328000 3551527.819000 -5.111000 0 148 106 0.000000
387985.742000 3551527.795998 -7.624001 0 50 204 0.000000
387987.446000 3551529.475998 2.562000 191 255 0 0.000000
387986.272000 3551528.379997 2.929001 205 255 0 0.000000
387988.008000 3551527.839996 2.917999 204 255 0 0.000000
387989.541000 3551527.639999 2.648001 194 255 0 0.000000
387986.242000 3551527.681999 1.760000 160 255 0 0.000000
387986.794000 3551526.358002 2.361000 183 255 0 0.000000
387988.558000 3551525.871002 2.743999 198 255 0 0.000000
387988.650000 3551525.478996 2.629999 193 255 0 0.000000
387986.958000 3551525.634003 2.080999 172 255 0 0.000000
387988.470000 3551525.681000 2.048000 171 255 0 0.000000
387988.797000 3551524.584000 2.094999 173 255 0 0.000000
387988.641000 3551524.723999 1.555000 152 255 0 0.000000
387988.665000 3551524.278000 1.073000 133 255 0 0.000000
387986.290000 3551527.969002 -4.909000 0 156 98 0.000000
387985.662000 3551528.294998 -7.234001 0 65 189 0.000000
387985.634000 3551528.106003 -7.563000 0 53 201 0.000000
387985.748000 3551527.626999 -7.629002 0 50 204 0.000000
387987.794000 3551527.745003 2.738001 198 255 0 0.000000
387989.296000 3551527.809998 2.691000 196 255 0 0.000000
387989.255000 3551527.719002 2.340000 182 255 0 0.000000
387988.062000 3551526.776001 2.635000 194 255 0 0.000000
387988.335000 3551525.601997 2.287001 180 255 0 0.000000
387988.169000 3551525.764999 1.731001 159 255 0 0.000000
387988.547000 3551524.755997 2.125000 174 255 0 0.000000
387990.124000 3551524.522003 2.316000 181 255 0 0.000000
387988.459000 3551524.552002 1.448000 148 255 0 0.000000
387988.436000 3551524.198997 0.888000 126 255 0 0.000000
387985.374000 3551528.266998 -7.525002 0 54 200 0.000000
387985.473000 3551527.819000 -7.613998 0 51 203 0.000000
387987.255000 3551528.547997 2.315001 181 255 0 0.000000
387989.248000 3551527.119003 2.546000 190 255 0 0.000000
387988.131000 3551525.468002 2.148001 174 255 0 0.000000
387988.322000 3551524.858002 2.212999 177 255 0 0.000000
387988.237000 3551524.842003 1.802999 161 255 0 0.000000
387987.783000 3551525.414001 0.482000 110 255 0 0.000000
387987.884000 3551524.991997 0.396000 106 255 0 0.000000
387987.135000 3551528.636002 2.410000 185 255 0 0.000000
387988.324000 3551529.504997 1.768000 160 255 0 0.000000
387987.166000 3551528.377998 2.177999 176 255 0 0.000000
387989.059000 3551527.181000 2.235001 178 255 0 0.000000
387987.835000 3551526.327003 2.466999 187 255 0 0.000000
387989.307000 3551526.403000 2.409000 185 255 0 0.000000
387988.220000 3551524.722000 2.069000 171 255 0 0.000000
387989.815000 3551524.447998 2.292000 180 255 0 0.000000
387988.765000 3551526.462997 -0.236000 83 255 0 0.000000
387985.116000 3551528.310997 -7.153999 0 68 186 0.000000
387985.055000 3551528.184998 -7.549999 0 53 201 0.000000
387988.635000 3551528.194000 2.545000 190 255 0 0.000000
387987.230000 3551527.703003 2.493000 188 255 0 0.000000
387987.795000 3551526.081001 2.891001 204 255 0 0.000000
387989.317000 3551526.008003 2.945000 206 255 0 0.000000
387989.351000 3551525.738998 2.740000 198 255 0 0.000000
387989.780000 3551524.352997 3.000999 208 255 0 0.000000
387987.815000 3551525.064003 1.600000 154 255 0 0.000000
387986.837000 3551526.727997 -0.653999 66 255 0 0.000000
387986.681000 3551526.412003 -1.746000 23 255 0 0.000000
387986.493000 3551528.968002 2.309999 181 255 0 0.000000
387988.021000 3551529.050003 2.240000 178 255 0 0.000000
387987.002000 3551527.657997 2.861000 202 255 0 0.000000
387988.226000 3551528.175003 2.042999 171 255 0 0.000000
387988.846000 3551526.524002 2.871000 203 255 0 0.000000
387987.163000 3551526.521004 2.041000 171 255 0 0.000000
387989.094000 3551525.555000 2.787001 200 255 0 0.000000
387988.972000 3551525.639000 2.299999 180 255 0 0.000000
387987.280000 3551525.871002 1.709999 158 255 0 0.000000
387987.227000 3551525.782997 1.358000 144 255 0 0.000000
387986.434000 3551526.608002 -1.094999 49 255 0 0.000000
387989.091000 3551524.163002 0.973000 129 255 0 0.000000
387988.333000 3551524.989998 -1.527000 32 255 0 0.000000
387986.310000 3551528.801003 2.372999 183 255 0 0.000000
387989.740000 3551527.547997 2.430000 186 255 0 0.000000
387988.764000 3551525.926003 2.855000 202 255 0 0.000000
387987.282000 3551525.707001 2.618000 193 255 0 0.000000
387988.636000 3551525.820999 2.096001 173 255 0 0.000000
387988.792000 3551524.859001 1.605000 154 255 0 0.000000
387988.720000 3551524.815002 1.209000 139 255 0 0.000000
387987.177000 3551527.837997 -2.228001 5 255 0 0.000000
387988.110000 3551525.101997 -1.240999 43 255 0 0.000000
387985.975000 3551527.776001 -7.618999 0 50 204 0.000000
387987.549000 3551529.420998 2.677000 195 255 0 0.000000
387986.469000 3551527.961998 2.913000 204 255 0 0.000000
387989.543000 3551527.679001 2.667999 195 255 0 0.000000
387986.492000 3551527.515999 2.403000 185 255 0 0.000000
387988.135000 3551527.253998 2.586000 192 255 0 0.000000
387989.573000 3551527.405998 2.454000 186 255 0 0.000000
387989.584000 3551527.181999 2.204000 177 255 0 0.000000
387988.574000 3551525.846001 2.834999 201 255 0 0.000000
387988.638000 3551525.496002 2.688000 195 255 0 0.000000
387986.661000 3551526.343002 1.610001 154 255 0 0.000000
387988.559000 3551525.477997 2.281000 180 255 0 0.000000
387988.554000 3551525.283997 2.011000 169 255 0 0.000000
387988.764000 3551524.603996 2.138000 174 255 0 0.000000
387988.605000 3551524.764999 1.594000 154 255 0 0.000000
387988.582000 3551524.608002 1.298000 142 255 0 0.000000
387988.615000 3551524.327003 1.104000 134 255 0 0.000000
387987.926000 3551524.984001 -1.232000 44 255 0 0.000000
387986.328000 3551527.995003 -4.875999 0 157 97 0.000000
387985.751000 3551528.480003 -6.845001 0 80 174 0.000000
387985.733000 3551528.260002 -7.158001 0 68 186 0.000000
387985.655000 3551528.168999 -7.591000 0 52 202 0.000000
387985.762000 3551527.685997 -7.645000 0 50 204 0.000000
387987.399000 3551529.128998 2.440001 186 255 0 0.000000
387989.450000 3551527.637001 3.094999 212 255 0 0.000000
387989.313000 3551527.783997 2.569000 191 255 0 0.000000
387989.360000 3551527.463997 2.386999 184 255 0 0.000000
387986.154000 3551527.628998 1.868999 164 255 0 0.000000
387986.592000 3551526.496002 2.329000 182 255 0 0.000000
387988.279000 3551526.087997 2.628000 193 255 0 0.000000
387988.440000 3551525.519997 2.650999 194 255 0 0.000000
387988.309000 3551525.611000 2.150000 174 255 0 0.000000
387988.578000 3551524.598999 2.129999 174 255 0 0.000000
387988.446000 3551524.693001 1.632000 155 255 0 0.000000
387988.443000 3551524.288002 1.122000 135 255 0 0.000000
387988.429000 3551524.102997 0.844000 124 255 0 0.000000
387987.661000 3551524.912003 -1.645000 27 255 0 0.000000
387986.179000 3551527.877998 -4.799999 0 160 94 0.000000
387988.856000 3551525.439003 -2.610001 0 245 9 0.000000
387985.646000 3551528.528000 -6.394001 0 98 156 0.000000
387985.468000 3551528.136002 -7.575001 0 53 201 0.000000
387985.584000 3551527.630997 -7.615002 0 50 204 0.000000
387987.157000 3551529.096001 2.459999 187 255 0 0.000000
387987.242000 3551528.699997 2.327999 182 255 0 0.000000
387987.322000 3551528.311996 2.191999 177 255 0 0.000000
387989.192000 3551527.251999 2.542000 190 255 0 0.000000
387987.952000 3551526.455002 2.752001 198 255 0 0.000000
387989.182000 3551527.070999 2.254000 179 255 0 0.000000
387989.388000 3551526.362000 2.384001 184 255 0 0.000000
387989.622000 3551525.585999 2.573999 191 255 0 0.000000
387988.099000 3551525.515999 2.235001 178 255 0 0.000000
387988.269000 3551524.719002 2.028000 170 255 0 0.000000
387989.837000 3551524.449997 2.226000 177 255 0 0.000000
387987.423000 3551526.399002 0.219999 100 255 0 0.000000
387989.762000 3551524.427002 1.827000 163 255 0 0.000000
387987.745000 3551525.469002 0.556000 113 255 0 0.000000
387988.825000 3551526.463997 -0.299999 80 255 0 0.000000
387985.188000 3551528.639999 -7.016998 0 74 180 0.000000
387985.242000 3551528.269997 -7.182999 0 68 186 0.000000
387985.189000 3551528.119003 -7.566002 0 53 201 0.000000
387985.276000 3551527.672997 -7.662998 0 49 205 0.000000
387987.098000 3551528.648003 2.381001 183 255 0 0.000000
387988.748000 3551528.348999 2.580000 192 255 0 0.000000
387987.150000 3551528.322998 2.193001 177 255 0 0.000000
387988.718000 3551528.220001 2.247999 179 255 0 0.000000
387988.972000 3551527.387001 2.455999 186 255 0 0.000000
387987.887000 3551526.225998 2.944000 206 255 0 0.000000
387989.440000 3551526.025002 3.075001 210 255 0 0.000000
387987.826000 3551526.164001 2.577000 192 255 0 0.000000
387989.301000 3551526.167999 2.552000 190 255 0 0.000000
387987.340000 3551527.061996 1.450001 148 255 0 0.000000
387989.479000 3551525.529999 2.634001 194 255 0 0.000000
387987.791000 3551525.834999 1.990999 169 255 0 0.000000
387989.795000 3551524.554001 2.990999 207 255 0 0.000000
387988.072000 3551524.997002 2.239000 178 255 0 0.000000
387988.057000 3551524.825996 1.959000 168 255 0 0.000000
387986.662000 3551527.722000 -0.856001 58 255 0 0.000000
387988.626000 3551526.757004 -0.084999 88 255 0 0.000000
387987.005000 3551526.737000 -0.493000 72 255 0 0.000000
387988.967000 3551525.723000 0.330999 104 255 0 0.000000
387985.075000 3551528.249001 -7.164001 0 68 186 0.000000
387988.630000 3551528.195000 2.764999 198 255 0 0.000000
387988.825000 3551527.307999 2.591999 192 255 0 0.000000
387989.118000 3551526.379997 2.877001 203 255 0 0.000000
387987.701000 3551526.042999 2.740999 198 255 0 0.000000
387989.292000 3551525.751999 2.943001 206 255 0 0.000000
387987.460000 3551526.386002 2.055000 171 255 0 0.000000
387989.196000 3551525.783997 2.504000 189 255 0 0.000000
387989.245000 3551525.462997 2.341000 182 255 0 0.000000
387987.645000 3551525.556000 1.864000 164 255 0 0.000000
387989.097000 3551525.612000 1.794001 161 255 0 0.000000
387987.735000 3551524.938004 1.516001 151 255 0 0.000000
387989.098000 3551525.191002 1.281000 141 255 0 0.000000
387986.789000 3551526.818001 -0.478001 73 255 0 0.000000
387988.997000 3551525.222000 0.827000 124 255 0 0.000000
387986.745000 3551526.694000 -0.823000 59 255 0 0.000000
387989.169000 3551524.600998 0.919001 127 255 0 0.000000
387986.784000 3551526.382004 -1.014999 52 255 0 0.000000
387986.619000 3551526.515999 -1.584000 30 255 0 0.000000
387986.673000 3551527.488998 -7.412998 0 59 195 0.000000
387988.102000 3551529.237000 2.423000 186 255 0 0.000000
387987.011000 3551527.787003 2.667000 195 255 0 0.000000
387988.594000 3551527.602997 2.780001 199 255 0 0.000000
387987.026000 3551527.546997 2.427999 186 255 0 0.000000
387988.279000 3551528.178001 1.922001 166 255 0 0.000000
387986.663000 3551528.170998 1.525000 151 255 0 0.000000
387988.897000 3551526.454002 2.820000 201 255 0 0.000000
387987.474000 3551526.123001 2.679001 195 255 0 0.000000
387989.119000 3551525.703003 2.979000 207 255 0 0.000000
387987.257000 3551526.408997 2.038000 171 255 0 0.000000
387987.096000 3551526.561996 1.490999 149 255 0 0.000000
387988.917000 3551525.789001 2.080000 172 255 0 0.000000
387987.358000 3551525.759003 1.695999 157 255 0 0.000000
387988.957000 3551525.272003 1.642000 155 255 0 0.000000
387988.509000 3551526.130997 0.503000 111 255 0 0.000000
387988.401000 3551526.167999 0.028999 92 255 0 0.000000
387989.043000 3551524.431999 1.056000 133 255 0 0.000000
387986.548000 3551526.457001 -1.086000 49 255 0 0.000000
387987.231000 3551527.275002 -4.191000 0 183 71 0.000000
387986.818000 3551527.970001 -5.322001 0 140 114 0.000000
387986.454000 3551527.502998 -7.436001 0 58 196 0.000000
387987.854000 3551529.322998 2.667999 195 255 0 0.000000
387987.847000 3551529.135002 2.375999 183 255 0 0.000000
387988.322000 3551527.755997 2.976000 207 255 0 0.000000
387986.867000 3551527.442001 2.823999 201 255 0 0.000000
387986.797000 3551527.392998 2.434999 186 255 0 0.000000
387988.295000 3551527.408997 2.389999 184 255 0 0.000000
387986.583000 3551527.667000 1.795000 161 255 0 0.000000
387988.890000 3551525.754997 3.240000 217 255 0 0.000000
387987.370000 3551525.691002 2.909000 204 255 0 0.000000
387988.816000 3551525.732002 2.846001 202 255 0 0.000000
387988.811000 3551525.538002 2.584000 192 255 0 0.000000
387986.895000 3551526.336998 1.558001 152 255 0 0.000000
387988.409000 3551526.297997 1.558001 152 255 0 0.000000
387988.943000 3551524.600998 2.087000 172 255 0 0.000000
387988.775000 3551524.788002 1.504000 150 255 0 0.000000
387987.903000 3551526.624001 -0.469999 73 255 0 0.000000
387988.798000 3551524.304001 1.052000 132 255 0 0.000000
387988.821000 3551524.031998 0.848000 124 255 0 0.000000
387988.089000 3551525.056999 -1.378000 38 255 0 0.000000
387986.571000 3551528.294998 -4.740000 0 163 91 0.000000
387985.963000 3551528.378998 -7.359001 0 61 193 0.000000
387985.986000 3551528.064003 -7.580002 0 52 202 0.000000
387987.693000 3551529.429001 2.732000 198 255 0 0.000000
387988.047000 3551527.934998 2.554001 190 255 0 0.000000
387989.596000 3551527.811996 2.615999 193 255 0 0.000000
387986.596000 3551527.588997 2.424999 186 255 0 0.000000
387988.206000 3551527.341003 2.584999 192 255 0 0.000000
387989.632000 3551527.511002 2.424999 186 255 0 0.000000
387988.551000 3551526.296997 2.965000 207 255 0 0.000000
387989.246000 3551528.323997 1.371000 145 255 0 0.000000
387988.637000 3551525.880997 2.867001 203 255 0 0.000000
387986.978000 3551526.106003 2.298000 180 255 0 0.000000
387988.697000 3551525.530998 2.719999 197 255 0 0.000000
387986.904000 3551526.063004 1.910999 166 255 0 0.000000
387988.674000 3551525.384003 2.424000 186 255 0 0.000000
387988.592000 3551525.374001 2.018000 170 255 0 0.000000
387988.808000 3551524.646004 2.183001 176 255 0 0.000000
387988.649000 3551524.813004 1.620001 154 255 0 0.000000
387986.112000 3551526.938004 -0.558001 70 255 0 0.000000
387988.640000 3551524.619003 1.349001 144 255 0 0.000000
387988.649000 3551524.386002 1.121000 135 255 0 0.000000
387988.605000 3551524.274002 0.784000 122 255 0 0.000000
387988.443000 3551524.211998 -0.035999 90 255 0 0.000000
387987.983000 3551525.042000 -1.222000 44 255 0 0.000000
387986.360000 3551528.515999 -4.799999 0 160 94 0.000000
387987.368000 3551525.981003 -2.983999 0 231 23 0.000000
387985.885000 3551528.568001 -6.869999 0 80 174 0.000000
387985.871000 3551528.334000 -7.169998 0 68 186 0.000000
387985.812000 3551528.205002 -7.566002 0 53 201 0.000000
387985.897000 3551527.750000 -7.650002 0 50 204 0.000000
387987.472000 3551529.619003 2.620001 193 255 0 0.000000
387987.522000 3551529.287003 2.429001 186 255 0 0.000000
387986.396000 3551528.127998 2.892000 204 255 0 0.000000
387987.975000 3551527.968002 2.983000 207 255 0 0.000000
387986.496000 3551527.696999 2.788000 200 255 0 0.000000
387987.927000 3551527.875999 2.622000 193 255 0 0.000000
387986.427000 3551527.644997 2.400999 184 255 0 0.000000
387988.046000 3551527.382004 2.572001 191 255 0 0.000000
387989.513000 3551527.446999 2.495001 188 255 0 0.000000
387989.103000 3551528.322998 1.402000 146 255 0 0.000000
387986.257000 3551527.612999 1.572001 152 255 0 0.000000
387988.416000 3551526.073997 2.742001 198 255 0 0.000000
387986.856000 3551526.064003 2.356001 183 255 0 0.000000
387988.462000 3551525.754997 2.570000 191 255 0 0.000000
387986.589000 3551526.449997 1.625999 154 255 0 0.000000
387988.427000 3551525.636002 2.247000 178 255 0 0.000000
387988.288000 3551525.754997 1.722000 158 255 0 0.000000
387988.659000 3551524.667000 2.186001 176 255 0 0.000000
387988.518000 3551524.578003 1.409000 146 255 0 0.000000
387988.210000 3551525.083000 0.546000 112 255 0 0.000000
387988.495000 3551524.202003 0.860001 124 255 0 0.000000
387987.764000 3551524.995003 -1.615000 29 255 0 0.000000
387987.236000 3551525.960999 -2.957001 0 231 23 0.000000
387985.841000 3551528.619003 -6.377998 0 99 155 0.000000
387985.667000 3551528.219002 -7.563000 0 53 201 0.000000
387985.768000 3551527.733002 -7.613998 0 51 203 0.000000
387987.494000 3551529.550003 2.604000 192 255 0 0.000000
387987.523000 3551529.278999 2.375000 183 255 0 0.000000
387986.445000 3551528.000000 2.910000 204 255 0 0.000000
387987.991000 3551527.911003 2.952999 206 255 0 0.000000
387987.963000 3551527.781998 2.632999 194 255 0 0.000000
387986.468000 3551527.547997 2.409000 185 255 0 0.000000
387988.056000 3551527.350998 2.537001 190 255 0 0.000000
387988.380000 3551526.352997 2.879999 203 255 0 0.000000
387989.520000 3551527.216003 2.191000 177 255 0 0.000000
387986.284000 3551527.559998 1.551001 151 255 0 0.000000
387988.414000 3551526.074997 2.688000 195 255 0 0.000000
387988.533000 3551525.580002 2.652000 195 255 0 0.000000
387986.647000 3551526.324997 1.658001 156 255 0 0.000000
387988.432000 3551525.621002 2.198999 177 255 0 0.000000
387988.503000 3551525.247002 2.077000 172 255 0 0.000000
387988.676000 3551524.625999 2.159000 175 255 0 0.000000
387988.520000 3551524.792999 1.601000 154 255 0 0.000000
387988.554000 3551524.504997 1.417000 146 255 0 0.000000
387988.525000 3551524.359001 1.106001 134 255 0 0.000000
387988.515000 3551524.170998 0.833000 124 255 0 0.000000
387986.368000 3551527.991997 -4.872000 0 157 97 0.000000
387985.896000 3551528.571999 -6.397999 0 98 156 0.000000
387985.730000 3551528.164001 -7.582001 0 52 202 0.000000
387985.823000 3551527.693001 -7.653999 0 49 205 0.000000
387987.378000 3551529.595001 2.584999 192 255 0 0.000000
387987.453000 3551529.202003 2.434999 186 255 0 0.000000
387986.326000 3551528.046997 2.882000 203 255 0 0.000000
387987.895000 3551527.902000 2.969999 207 255 0 0.000000
387986.401000 3551527.680000 2.745001 198 255 0 0.000000
387987.816000 3551527.901001 2.559000 191 255 0 0.000000
387989.388000 3551527.709999 2.683001 195 255 0 0.000000
387986.349000 3551527.598000 2.386000 184 255 0 0.000000
387987.767000 3551527.819000 2.197001 177 255 0 0.000000
387989.403000 3551527.470001 2.441999 186 255 0 0.000000
387988.144000 3551526.692001 2.636000 194 255 0 0.000000
387987.763000 3551527.419998 1.646999 155 255 0 0.000000
387988.357000 3551525.771004 2.514000 189 255 0 0.000000
387986.542000 3551526.339996 1.656000 156 255 0 0.000000
387988.337000 3551525.612999 2.216999 177 255 0 0.000000
387988.211000 3551525.711998 1.715000 158 255 0 0.000000
387988.496000 3551524.819000 2.013000 169 255 0 0.000000
387988.455000 3551524.716003 1.681000 157 255 0 0.000000
387988.453000 3551524.512001 1.424999 147 255 0 0.000000
387988.427000 3551524.153000 0.871000 125 255 0 0.000000
387987.714000 3551524.932999 -1.594999 29 255 0 0.000000
387985.625000 3551528.205002 -7.584999 0 52 202 0.000000
387985.738000 3551527.688004 -7.613998 0 51 203 0.000000
387987.361000 3551529.190002 2.518000 189 255 0 0.000000
387986.140000 3551528.254997 2.799000 200 255 0 0.000000
387987.777000 3551527.750999 2.731001 198 255 0 0.000000
387987.986000 3551527.037003 2.856001 202 255 0 0.000000
387989.184000 3551527.788002 2.266001 179 255 0 0.000000
387988.032000 3551526.723999 2.676001 195 255 0 0.000000
387989.376000 3551527.071999 2.388000 184 255 0 0.000000
387986.510000 3551526.609001 2.361000 183 255 0 0.000000
387987.969000 3551526.677002 2.289000 180 255 0 0.000000
387988.009000 3551526.378998 2.103001 173 255 0 0.000000
387988.237000 3551525.620003 2.278000 180 255 0 0.000000
387988.167000 3551525.586998 1.886999 165 255 0 0.000000
387988.394000 3551524.843002 2.076000 172 255 0 0.000000
387988.348000 3551524.740997 1.724001 158 255 0 0.000000
387987.670000 3551526.146004 0.121000 96 255 0 0.000000
387987.958000 3551525.253998 0.441000 109 255 0 0.000000
387986.071000 3551527.775002 -5.556999 0 130 124 0.000000
387985.605000 3551528.318001 -7.091999 0 71 183 0.000000
387985.521000 3551528.251999 -7.544998 0 53 201 0.000000
387985.618000 3551527.776001 -7.608002 0 51 203 0.000000
387987.166000 3551529.353996 2.511000 189 255 0 0.000000
387987.302000 3551528.814003 2.478001 187 255 0 0.000000
387987.342000 3551528.510002 2.275000 180 255 0 0.000000
387987.769000 3551527.255997 2.792000 200 255 0 0.000000
387988.988000 3551527.958000 2.239000 178 255 0 0.000000
387987.877000 3551526.792999 2.732000 198 255 0 0.000000
387989.254000 3551527.054001 2.513000 189 255 0 0.000000
387989.217000 3551526.952003 2.174999 176 255 0 0.000000
387987.611000 3551527.037003 1.695999 157 255 0 0.000000
387987.695000 3551526.625000 1.590000 153 255 0 0.000000
387988.105000 3551525.432999 2.122000 174 255 0 0.000000
387988.291000 3551524.783997 2.231001 178 255 0 0.000000
387988.192000 3551524.818001 1.784000 160 255 0 0.000000
387987.535000 3551526.166000 0.225000 100 255 0 0.000000
387987.790000 3551525.348000 0.469999 109 255 0 0.000000
387987.445000 3551525.504997 -0.997000 53 255 0 0.000000
387985.448000 3551528.389999 -7.025002 0 74 180 0.000000
387985.361000 3551528.322998 -7.488998 0 56 198 0.000000
387985.439000 3551527.891998 -7.591000 0 52 202 0.000000
387985.539000 3551527.411003 -7.646000 0 50 204 0.000000
387987.109000 3551528.612000 2.353001 183 255 0 0.000000
387988.727000 3551528.343002 2.531000 189 255 0 0.000000
387987.359000 3551527.793999 2.541000 190 255 0 0.000000
387987.854000 3551526.186996 2.938000 205 255 0 0.000000
387989.378000 3551526.017998 3.048000 210 255 0 0.000000
387987.810000 3551526.092003 2.597000 192 255 0 0.000000
387987.600000 3551526.391998 1.931999 166 255 0 0.000000
387989.416000 3551525.512001 2.608000 192 255 0 0.000000
387987.730000 3551525.874001 1.917999 166 255 0 0.000000
387989.358000 3551525.460999 2.228001 178 255 0 0.000000
387988.026000 3551524.752998 1.976000 168 255 0 0.000000
387988.629000 3551526.710999 -0.093000 88 255 0 0.000000
387987.003000 3551526.750000 -0.548000 70 255 0 0.000000
387988.960000 3551525.648003 0.355000 105 255 0 0.000000
387985.675000 3551529.393997 -3.747000 0 201 53 0.000000
387989.244000 3551524.491997 0.458000 109 255 0 0.000000
387986.847000 3551526.436996 -1.656000 27 255 0 0.000000
387985.163000 3551528.573997 -7.015999 0 74 180 0.000000
387986.800000 3551528.653000 -7.120998 0 70 184 0.000000
387985.185000 3551528.266998 -7.238998 0 65 189 0.000000
387987.118000 3551528.689003 2.407000 185 255 0 0.000000
387988.318000 3551529.543999 1.752001 160 255 0 0.000000
387987.159000 3551528.386002 2.202000 177 255 0 0.000000
387987.361000 3551527.684998 2.305000 181 255 0 0.000000
387987.882000 3551526.208000 3.024000 209 255 0 0.000000
387987.833000 3551526.134003 2.667000 195 255 0 0.000000
387989.234000 3551526.291000 2.528999 189 255 0 0.000000
387987.334000 3551527.148003 1.447001 148 255 0 0.000000
387989.428000 3551525.582001 2.671000 195 255 0 0.000000
387987.763000 3551525.901001 2.007000 169 255 0 0.000000
387989.368000 3551525.537003 2.282000 180 255 0 0.000000
387987.799000 3551525.612999 1.820000 162 255 0 0.000000
387988.089000 3551524.711998 2.125999 174 255 0 0.000000
387987.902000 3551524.954002 1.500000 150 255 0 0.000000
387987.032000 3551526.820000 -0.487000 73 255 0 0.000000
387989.076000 3551525.478996 0.622000 115 255 0 0.000000
387988.972000 3551525.530998 0.132999 97 255 0 0.000000
387986.867000 3551526.544998 -1.622000 29 255 0 0.000000
387985.260000 3551528.313004 -7.152000 0 69 185 0.000000
387985.281000 3551527.748001 -7.654999 0 49 205 0.000000
387986.956000 3551529.028999 2.312000 181 255 0 0.000000
387987.099000 3551528.476997 2.299999 180 255 0 0.000000
387987.320000 3551527.728996 2.436001 186 255 0 0.000000
387987.835000 3551526.071999 2.878000 203 255 0 0.000000
387989.307000 3551526.025002 2.903000 204 255 0 0.000000
387989.326000 3551525.778000 2.677000 195 255 0 0.000000
387987.683000 3551525.845001 1.792000 161 255 0 0.000000
387989.354000 3551525.313004 2.211000 177 255 0 0.000000
387987.795000 3551525.373001 1.750000 160 255 0 0.000000
387987.844000 3551525.053001 1.584999 153 255 0 0.000000
387986.965000 3551526.946999 -0.426001 75 255 0 0.000000
387987.000000 3551526.647003 -0.627001 67 255 0 0.000000
387988.965000 3551525.507004 0.323999 104 255 0 0.000000
387985.647000 3551529.396004 -3.922001 0 194 60 0.000000
387986.846000 3551526.351997 -1.747000 23 255 0 0.000000
387985.218000 3551528.432999 -7.073002 0 72 182 0.000000
387985.178000 3551528.267998 -7.432999 0 58 196 0.000000
387986.771000 3551528.456001 -7.632000 0 50 204 0.000000
387986.967000 3551528.616997 2.424000 186 255 0 0.000000
387988.634000 3551528.206001 2.722000 197 255 0 0.000000
387987.170000 3551527.914001 2.524000 189 255 0 0.000000
387988.556000 3551528.214996 2.285999 180 255 0 0.000000
387989.104000 3551526.362999 2.874001 203 255 0 0.000000
387987.699000 3551526.025002 2.726000 197 255 0 0.000000
387989.260000 3551525.748001 2.931999 205 255 0 0.000000
387987.477000 3551526.369003 2.031000 170 255 0 0.000000
387989.235000 3551525.421997 2.350000 183 255 0 0.000000
387987.609000 3551525.650002 1.759001 160 255 0 0.000000
387989.082000 3551525.627998 1.767000 160 255 0 0.000000
387986.900000 3551526.942001 -0.173000 85 255 0 0.000000
387986.876000 3551526.787003 -0.493000 72 255 0 0.000000
387988.996000 3551525.239998 0.798000 122 255 0 0.000000
387986.823000 3551526.696999 -0.865000 58 255 0 0.000000
387989.168000 3551524.591003 0.917999 127 255 0 0.000000
387986.868000 3551526.371002 -1.044001 51 255 0 0.000000
387986.720000 3551526.501999 -1.608000 29 255 0 0.000000
387988.332000 3551525.638000 -2.250000 4 255 0 0.000000
387985.085000 3551528.620003 -6.951000 0 77 177 0.000000
387985.117000 3551528.292999 -7.162998 0 68 186 0.000000
387985.068000 3551528.151001 -7.542000 0 53 201 0.000000
387986.632000 3551529.059998 2.327000 182 255 0 0.000000
387988.116000 3551529.174004 2.232000 178 255 0 0.000000
387987.010000 3551527.929001 2.752001 198 255 0 0.000000
387987.029000 3551527.681000 2.511000 189 255 0 0.000000
387986.679000 3551528.338997 1.576000 153 255 0 0.000000
387988.869000 3551526.560997 2.934999 205 255 0 0.000000
387988.876000 3551526.346001 2.687000 195 255 0 0.000000
387986.390000 3551528.637001 0.473000 109 255 0 0.000000
387989.095000 3551525.572998 2.879999 203 255 0 0.000000
387987.157000 3551526.570000 1.681000 157 255 0 0.000000
387988.964000 3551525.722000 2.346001 183 255 0 0.000000
387987.325000 3551525.958000 1.740000 159 255 0 0.000000
387988.810000 3551525.921997 1.756001 160 255 0 0.000000
387987.345000 3551525.706001 1.516001 151 255 0 0.000000
387988.654000 3551526.125999 1.158001 136 255 0 0.000000
387988.980000 3551525.075996 1.597000 154 255 0 0.000000
387986.594000 3551526.650002 -1.035000 51 255 0 0.000000
387989.073000 3551524.218002 1.035000 132 255 0 0.000000
387988.464000 3551524.903999 -1.344000 39 255 0 0.000000
387987.063000 3551527.941002 -5.051001 0 151 103 0.000000
387986.957000 3551527.955002 -5.570999 0 130 124 0.000000
387988.140000 3551528.569000 -7.188999 0 68 186 0.000000
387986.658000 3551527.429001 -7.634998 0 50 204 0.000000
387986.517000 3551529.083000 2.424000 186 255 0 0.000000
387988.028000 3551529.117996 2.386999 184 255 0 0.000000
387987.026000 3551527.623001 3.084000 211 255 0 0.000000
387987.014000 3551527.458000 2.789000 200 255 0 0.000000
387988.457000 3551527.567001 2.694000 196 255 0 0.000000
387988.764000 3551526.358002 2.783001 199 255 0 0.000000
387987.453000 3551525.792000 2.825001 201 255 0 0.000000
387988.891000 3551525.824997 2.785999 199 255 0 0.000000
387988.795000 3551525.883003 2.323000 181 255 0 0.000000
387987.040000 3551526.391998 1.497999 150 255 0 0.000000
387988.766000 3551525.754997 1.997999 169 255 0 0.000000
387987.216000 3551525.764000 1.576000 153 255 0 0.000000
387988.563000 3551526.083000 1.302000 142 255 0 0.000000
387986.437000 3551527.210999 -0.490000 72 255 0 0.000000
387988.438000 3551525.997002 0.511000 111 255 0 0.000000
387988.889000 3551524.624001 1.225000 139 255 0 0.000000
387986.465000 3551526.706001 -0.975000 53 255 0 0.000000
387988.939000 3551524.289001 1.080000 133 255 0 0.000000
387986.471000 3551526.471001 -1.232000 44 255 0 0.000000
387988.361000 3551524.903000 -1.226999 44 255 0 0.000000
387987.989000 3551525.613998 -2.316999 2 255 0 0.000000
387986.809000 3551528.066002 -5.552000 0 131 123 0.000000
387986.667000 3551527.425003 -6.971001 0 76 178 0.000000
387986.581000 3551527.375999 -7.450001 0 57 197 0.000000
387986.566000 3551528.555000 2.889000 204 255 0 0.000000
387987.863000 3551529.117996 2.459999 187 255 0 0.000000
387986.386000 3551528.803001 2.278999 180 255 0 0.000000
387989.644000 3551527.873001 2.525999 189 255 0 0.000000
387986.763000 3551527.475998 2.434999 186 255 0 0.000000
387988.279000 3551527.410004 2.472000 187 255 0 0.000000
387989.727000 3551527.435997 2.438000 186 255 0 0.000000
387986.570000 3551527.745003 1.796000 161 255 0 0.000000
387987.092000 3551526.273003 2.518000 189 255 0 0.000000
387988.787000 3551525.666000 2.982000 207 255 0 0.000000
387988.783000 3551525.481003 2.716000 197 255 0 0.000000
387987.021000 3551526.045998 1.858000 163 255 0 0.000000
387986.064000 3551528.135002 -0.267000 81 255 0 0.000000
387988.888000 3551524.609001 2.167000 175 255 0 0.000000
387988.721000 3551524.834999 1.552999 151 255 0 0.000000
387988.741000 3551524.373001 1.090000 133 255 0 0.000000
387988.711000 3551524.240997 0.770000 121 255 0 0.000000
387988.117000 3551525.087997 -1.313000 41 255 0 0.000000
387986.631000 3551527.333000 -6.289001 0 102 152 0.000000
387986.513000 3551527.366997 -6.832001 0 81 173 0.000000
387987.530000 3551529.543999 2.730000 198 255 0 0.000000
387986.380000 3551528.210999 2.888000 204 255 0 0.000000
387986.493000 3551527.733002 2.820999 201 255 0 0.000000
387989.445000 3551527.728996 2.785000 199 255 0 0.000000
387986.425000 3551527.697998 2.422001 186 255 0 0.000000
387989.431000 3551527.566002 2.486000 188 255 0 0.000000
387988.035000 3551527.196999 2.368000 183 255 0 0.000000
387989.311000 3551527.709999 1.952000 167 255 0 0.000000
387986.277000 3551527.647003 1.603001 154 255 0 0.000000
387988.382000 3551526.084000 2.809000 201 255 0 0.000000
387986.752000 3551526.297997 2.238001 178 255 0 0.000000
387988.363000 3551525.931000 2.509001 189 255 0 0.000000
387989.521000 3551526.697998 1.881001 165 255 0 0.000000
387986.584000 3551526.496002 1.656000 156 255 0 0.000000
387988.497000 3551525.384003 2.528999 189 255 0 0.000000
387989.070000 3551527.769997 0.594000 115 255 0 0.000000
387988.326000 3551525.625000 1.916000 166 255 0 0.000000
387988.486000 3551524.597000 1.492001 149 255 0 0.000000
387987.316000 3551525.982002 -2.868000 0 235 19 0.000000
387985.872000 3551528.246002 -7.497002 0 56 198 0.000000
387985.927000 3551527.860001 -7.638000 0 50 204 0.000000
387987.358000 3551529.100998 2.400999 184 255 0 0.000000
387986.211000 3551527.978996 2.840000 201 255 0 0.000000
387987.341000 3551528.945000 2.090000 172 255 0 0.000000
387985.904000 3551528.308998 1.726999 158 255 0 0.000000
387987.973000 3551526.870003 2.812000 201 255 0 0.000000
387989.311000 3551527.170998 2.556999 191 255 0 0.000000
387989.295000 3551527.015999 2.266001 179 255 0 0.000000
387987.904000 3551526.643997 2.146000 174 255 0 0.000000
387989.428000 3551526.426003 2.292000 180 255 0 0.000000
387988.022000 3551526.136002 2.125999 174 255 0 0.000000
387988.189000 3551525.497002 2.215000 177 255 0 0.000000
387988.294000 3551524.817001 1.927999 166 255 0 0.000000
387988.275000 3551524.660004 1.636999 155 255 0 0.000000
387988.304000 3551524.376999 1.452000 148 255 0 0.000000
387987.942000 3551525.070999 0.421000 108 255 0 0.000000
387985.705000 3551528.428001 -6.902000 0 78 176 0.000000
387985.683000 3551528.213997 -7.230000 0 65 189 0.000000
387985.627000 3551528.088997 -7.630001 0 50 204 0.000000
387985.742000 3551527.556000 -7.625999 0 50 204 0.000000
387987.157000 3551528.793999 2.434999 186 255 0 0.000000
387988.529000 3551529.124001 2.159000 175 255 0 0.000000
387987.217000 3551528.435997 2.283001 180 255 0 0.000000
387988.525000 3551528.931000 1.881001 165 255 0 0.000000
387987.385000 3551527.790001 2.347000 183 255 0 0.000000
387988.945000 3551527.527000 2.520000 189 255 0 0.000000
387989.225000 3551526.529999 2.865999 203 255 0 0.000000
387987.864000 3551526.136002 2.785999 199 255 0 0.000000
387989.340000 3551526.005997 2.860001 202 255 0 0.000000
387989.394000 3551525.643997 2.722000 197 255 0 0.000000
387989.383000 3551525.473999 2.447001 186 255 0 0.000000
387988.085000 3551524.746002 2.224001 177 255 0 0.000000
387987.914000 3551524.971001 1.617001 154 255 0 0.000000
387989.568000 3551524.336998 2.115999 174 255 0 0.000000
387986.743000 3551527.686996 -1.105000 48 255 0 0.000000
387989.085000 3551525.442001 0.754999 121 255 0 0.000000
387987.068000 3551526.652000 -0.674999 65 255 0 0.000000
387988.988000 3551525.494003 0.281000 102 255 0 0.000000
387986.916000 3551526.342003 -1.778000 23 255 0 0.000000
387985.369000 3551528.343002 -7.055000 0 73 181 0.000000
387986.889000 3551528.624001 2.388000 184 255 0 0.000000
387988.550000 3551528.127998 2.730000 198 255 0 0.000000
387987.112000 3551527.837997 2.556000 191 255 0 0.000000
387987.105000 3551527.643997 2.271999 180 255 0 0.000000
387986.848000 3551528.098000 1.497999 150 255 0 0.000000
387988.946000 3551526.400002 2.792000 200 255 0 0.000000
387987.558000 3551526.075996 2.653999 195 255 0 0.000000
387989.128000 3551525.685997 2.931000 205 255 0 0.000000
387987.362000 3551526.363998 2.000999 169 255 0 0.000000
387989.010000 3551525.807999 2.415001 185 255 0 0.000000
387987.216000 3551526.517998 1.452000 148 255 0 0.000000
387988.927000 3551525.825996 1.980000 169 255 0 0.000000
387987.439000 3551525.744003 1.645000 155 255 0 0.000000
387988.990000 3551525.228996 1.608000 154 255 0 0.000000
387986.799000 3551526.911003 -0.184999 84 255 0 0.000000
387988.564000 3551526.170998 0.402000 107 255 0 0.000000
387986.614000 3551527.139999 -0.840000 59 255 0 0.000000
387988.490000 3551526.146004 -0.032000 90 255 0 0.000000
387989.068000 3551524.374001 1.045000 132 255 0 0.000000
387986.750000 3551526.348999 -1.070999 50 255 0 0.000000
387986.602000 3551526.474998 -1.650000 27 255 0 0.000000
387987.114000 3551528.121002 -5.077999 0 149 105 0.000000
387987.034000 3551528.077003 -5.535999 0 131 123 0.000000
387986.749000 3551527.498001 -7.560001 0 53 201 0.000000
387986.424000 3551528.902000 2.381001 183 255 0 0.000000
387987.887000 3551528.995003 2.285000 180 255 0 0.000000
387986.937000 3551527.389000 3.093000 211 255 0 0.000000
387986.904000 3551527.271004 2.764999 198 255 0 0.000000
387988.242000 3551527.597000 2.490999 188 255 0 0.000000
387989.674000 3551527.647003 2.427000 186 255 0 0.000000
387988.010000 3551528.024002 1.726000 158 255 0 0.000000
387988.825000 3551525.588997 3.212000 216 255 0 0.000000
387987.263000 3551525.753998 2.688000 195 255 0 0.000000
387988.726000 3551525.656998 2.739000 198 255 0 0.000000
387986.506000 3551527.431000 0.917000 127 255 0 0.000000
387987.968000 3551527.501999 0.833000 124 255 0 0.000000
387987.033000 3551525.911003 1.715000 158 255 0 0.000000
387986.158000 3551527.853996 -0.320999 79 255 0 0.000000
387988.694000 3551524.907997 1.652000 156 255 0 0.000000
387988.703000 3551524.676003 1.422001 147 255 0 0.000000
387987.931000 3551526.503998 -0.566999 69 255 0 0.000000
387988.709000 3551524.234001 0.941999 128 255 0 0.000000
387988.088000 3551525.182999 -1.240999 43 255 0 0.000000
387987.016000 3551527.230003 -4.524000 0 171 83 0.000000
387986.669000 3551527.350998 -6.148998 0 108 146 0.000000
387986.549000 3551527.400002 -6.696999 0 86 168 0.000000
387986.270000 3551527.825996 -7.650002 0 50 204 0.000000
387987.200000 3551528.874001 2.447001 186 255 0 0.000000
387987.271000 3551528.478996 2.309000 181 255 0 0.000000
387988.523000 3551529.133003 1.792999 161 255 0 0.000000
387987.674000 3551527.198997 2.857000 202 255 0 0.000000
387988.869000 3551527.919998 2.285000 180 255 0 0.000000
387989.018000 3551527.285004 2.351000 183 255 0 0.000000
387987.931000 3551526.119003 2.860001 202 255 0 0.000000
387987.909000 3551525.970001 2.551001 190 255 0 0.000000
387989.411000 3551525.744003 2.709999 197 255 0 0.000000
387986.849000 3551528.538002 0.063000 94 255 0 0.000000
387989.445000 3551525.446999 2.528000 189 255 0 0.000000
387988.054000 3551525.184998 2.340000 182 255 0 0.000000
387988.117000 3551524.813004 2.215000 177 255 0 0.000000
387987.960000 3551525.013000 1.624001 154 255 0 0.000000
387986.800000 3551527.778000 -1.134001 47 255 0 0.000000
387987.144000 3551526.671997 -0.659000 66 255 0 0.000000
387989.046000 3551525.519997 0.302999 103 255 0 0.000000
387988.102000 3551527.920998 -2.212999 5 255 0 0.000000
387989.224000 3551524.601997 0.226000 100 255 0 0.000000
387986.990000 3551526.389999 -1.792999 22 255 0 0.000000
387985.498000 3551528.375000 -7.070999 0 72 182 0.000000
387985.459000 3551528.211998 -7.436001 0 58 196 0.000000
387986.483000 3551528.267998 2.858000 202 255 0 0.000000
387986.590000 3551527.799004 2.785000 199 255 0 0.000000
387986.517000 3551527.786003 2.370001 183 255 0 0.000000
387989.547000 3551527.516998 2.561001 191 255 0 0.000000
387986.636000 3551527.288002 2.329000 182 255 0 0.000000
387988.424000 3551526.400002 3.011000 208 255 0 0.000000
387989.188000 3551528.403000 1.447001 148 255 0 0.000000
387988.453000 3551526.125000 2.808001 201 255 0 0.000000
387986.935000 3551526.130997 2.382000 183 255 0 0.000000
387988.437000 3551525.963997 2.506001 189 255 0 0.000000
387986.705000 3551526.504997 1.653000 156 255 0 0.000000
387988.564000 3551525.419998 2.518999 189 255 0 0.000000
387986.994000 3551525.579002 1.966999 168 255 0 0.000000
387988.415000 3551525.621002 1.924000 166 255 0 0.000000
387988.601000 3551524.918999 2.073000 171 255 0 0.000000
387986.390000 3551526.664001 0.208000 100 255 0 0.000000
387986.199000 3551526.918999 -0.459000 74 255 0 0.000000
387988.565000 3551524.615997 1.479000 149 255 0 0.000000
387987.762000 3551526.542000 -0.600000 68 255 0 0.000000
387988.565000 3551524.199997 0.959999 129 255 0 0.000000
387988.550000 3551524.032997 0.669001 118 255 0 0.000000
387987.950000 3551525.172997 -1.240999 43 255 0 0.000000
387986.134000 3551528.416000 -7.200001 0 67 187 0.000000
387986.087000 3551528.276001 -7.603001 0 51 203 0.000000
387986.182000 3551527.785004 -7.653000 0 49 205 0.000000
387988.322000 3551525.651001 -7.091000 0 71 183 0.000000
387988.131000 3551529.224998 2.327999 182 255 0 0.000000
387987.076000 3551527.644997 2.645000 194 255 0 0.000000
387988.583000 3551527.549004 2.730000 198 255 0 0.000000
387987.049000 3551527.530998 2.311001 181 255 0 0.000000
387986.768000 3551528.071999 1.450001 148 255 0 0.000000
387988.852000 3551526.407997 2.767000 198 255 0 0.000000
387987.475000 3551526.040001 2.620001 193 255 0 0.000000
387989.046000 3551525.675003 2.924000 205 255 0 0.000000
387987.265000 3551526.397003 1.910999 166 255 0 0.000000
387989.063000 3551525.441002 2.691000 196 255 0 0.000000
387987.151000 3551526.499001 1.396000 145 255 0 0.000000
387988.892000 3551525.739998 2.028999 170 255 0 0.000000
387987.383000 3551525.704002 1.603001 154 255 0 0.000000
387988.944000 3551525.205002 1.599001 154 255 0 0.000000
387986.764000 3551526.891998 -0.267000 81 255 0 0.000000
387988.544000 3551526.128998 0.392000 106 255 0 0.000000
387986.637000 3551527.009003 -0.820000 59 255 0 0.000000
387986.611000 3551526.864998 -1.164000 46 255 0 0.000000
387989.041000 3551524.359001 1.011999 130 255 0 0.000000
387986.745000 3551526.318001 -1.153000 47 255 0 0.000000
387986.619000 3551526.421997 -1.715000 25 255 0 0.000000
387988.552000 3551524.888000 -1.247999 43 255 0 0.000000
387985.672000 3551528.115997 -4.681000 0 165 89 0.000000
387988.452000 3551524.949997 -1.764999 23 255 0 0.000000
387988.133000 3551525.594002 -2.826000 0 237 17 0.000000
387986.498000 3551529.724998 -7.178001 0 68 186 0.000000
387987.036000 3551529.272003 2.399000 184 255 0 0.000000
387987.205000 3551528.634003 2.434999 186 255 0 0.000000
387988.519000 3551529.136002 2.096001 173 255 0 0.000000
387987.246000 3551528.349998 2.216999 177 255 0 0.000000
387988.546000 3551528.880997 1.851999 163 255 0 0.000000
387988.951000 3551527.509003 2.471001 187 255 0 0.000000
387986.672000 3551529.540001 0.415001 107 255 0 0.000000
387989.235000 3551526.501999 2.829000 201 255 0 0.000000
387987.815000 3551526.292999 2.530001 189 255 0 0.000000
387989.315000 3551526.098000 2.725000 197 255 0 0.000000
387987.444000 3551527.103996 1.444000 148 255 0 0.000000
387989.423000 3551525.607002 2.681999 195 255 0 0.000000
387987.601000 3551526.504997 1.488001 149 255 0 0.000000
387989.416000 3551525.458000 2.379000 183 255 0 0.000000
387988.069000 3551525.085999 2.215000 177 255 0 0.000000
387989.377000 3551525.398003 2.002001 169 255 0 0.000000
387988.140000 3551524.719002 2.080999 172 255 0 0.000000
387987.391000 3551526.516998 0.153999 97 255 0 0.000000
387989.642000 3551524.286003 2.072001 171 255 0 0.000000
387987.675000 3551525.581001 0.490000 110 255 0 0.000000
