387981.231000 3551514.947998 2.847000 202 255 0 0.000000
387980.272000 3551514.434998 2.434999 186 255 0 0.000000
387979.258000 3551514.099998 2.353001 183 255 0 0.000000
387983.109000 3551515.911003 3.059999 210 255 0 0.000000
387982.461000 3551514.307999 0.610001 115 255 0 0.000000
387981.423000 3551513.945000 0.490999 110 255 0 0.000000
387979.192000 3551514.315002 2.226999 177 255 0 0.000000
387982.548000 3551513.936996 -0.642000 67 255 0 0.000000
387981.127000 3551515.259003 2.374001 183 255 0 0.000000
387980.123000 3551514.971001 2.368000 183 255 0 0.000000
387979.110000 3551514.671997 2.348000 183 255 0 0.000000
387982.523000 3551513.995003 -1.120001 48 255 0 0.000000
387981.266000 3551514.496002 0.402000 107 255 0 0.000000
387980.162000 3551514.527000 1.011999 130 255 0 0.000000
387979.082000 3551514.546997 1.589001 153 255 0 0.000000
387978.084000 3551513.809998 0.785999 122 255 0 0.000000
387982.411000 3551514.389000 -0.948000 55 255 0 0.000000
387981.202000 3551514.700996 0.230000 100 255 0 0.000000
387980.109000 3551514.662003 0.716999 119 255 0 0.000000
387979.040000 3551514.539001 1.039000 132 255 0 0.000000
387978.019000 3551513.971001 0.538000 112 255 0 0.000000
387982.332000 3551514.653999 -1.025999 52 255 0 0.000000
387981.096000 3551515.105003 0.434000 108 255 0 0.000000
387980.020000 3551515.015999 0.823999 124 255 0 0.000000
387979.054000 3551513.988998 -0.554001 70 255 0 0.000000
387978.014000 3551513.067001 -1.700001 26 255 0 0.000000
387982.213000 3551515.075996 -0.795000 61 255 0 0.000000
387981.004000 3551515.446999 0.524000 112 255 0 0.000000
387979.922000 3551515.438004 1.073000 133 255 0 0.000000
387979.009000 3551513.977997 -1.153000 47 255 0 0.000000
387977.933000 3551513.466003 -1.539000 32 255 0 0.000000
387982.257000 3551514.865997 -1.816999 21 255 0 0.000000
387979.867000 3551515.572998 0.777000 121 255 0 0.000000
387979.050000 3551513.114998 -3.408001 0 214 40 0.000000
387977.857000 3551513.777000 -1.528999 32 255 0 0.000000
387978.856000 3551514.543999 -1.226000 44 255 0 0.000000
387977.785000 3551514.016998 -1.656000 27 255 0 0.000000
387978.790000 3551514.732002 -1.450001 35 255 0 0.000000
387977.710000 3551514.324997 -1.646999 27 255 0 0.000000
387978.655000 3551515.625000 -0.264999 81 255 0 0.000000
387978.630000 3551515.375000 -1.374001 38 255 0 0.000000
387977.609000 3551513.709999 -4.118000 0 186 68 0.000000
387980.026000 3551512.391998 4.263000 255 252 0 0.000000
387979.954000 3551512.669998 4.231001 255 254 0 0.000000
387982.998000 3551513.264999 3.327000 221 255 0 0.000000
387982.156000 3551512.209000 2.076000 172 255 0 0.000000
387981.036000 3551512.342003 2.768999 199 255 0 0.000000
387979.888000 3551512.903000 4.135000 252 255 0 0.000000
387982.940000 3551513.452003 3.149000 213 255 0 0.000000
387982.120000 3551512.288002 1.702000 157 255 0 0.000000
387980.996000 3551512.407997 2.386999 184 255 0 0.000000
387979.775000 3551513.491997 4.615000 255 239 0 0.000000
387981.998000 3551512.764000 1.985001 169 255 0 0.000000
387980.771000 3551513.552002 3.780001 238 255 0 0.000000
387979.687000 3551513.894997 4.808001 255 231 0 0.000000
387982.952000 3551513.343002 1.959000 168 255 0 0.000000
387981.919000 3551513.035004 1.934999 166 255 0 0.000000
387980.682000 3551513.910004 3.896000 243 255 0 0.000000
387979.625000 3551514.106003 4.688999 255 236 0 0.000000
387982.889000 3551513.549004 1.790001 161 255 0 0.000000
387981.853000 3551513.253998 1.789000 161 255 0 0.000000
387980.560000 3551514.456001 4.329000 255 249 0 0.000000
387979.556000 3551514.355003 4.625999 255 238 0 0.000000
387978.683000 3551512.844002 2.582001 192 255 0 0.000000
387982.857000 3551513.637001 1.412001 146 255 0 0.000000
387981.803000 3551513.391998 1.502001 150 255 0 0.000000
387980.501000 3551514.640999 4.158001 253 255 0 0.000000
387979.543000 3551514.157997 3.812000 240 255 0 0.000000
387978.634000 3551512.834999 2.066000 171 255 0 0.000000
387982.711000 3551514.160004 1.813999 162 255 0 0.000000
387981.641000 3551514.057999 2.150000 174 255 0 0.000000
387980.553000 3551514.161003 2.834000 201 255 0 0.000000
387979.472000 3551514.427002 3.787001 238 255 0 0.000000
387982.895000 3551513.430000 -0.039000 90 255 0 0.000000
387981.542000 3551514.430000 2.294001 180 255 0 0.000000
387980.478000 3551514.435997 2.812000 201 255 0 0.000000
387979.407000 3551514.653999 3.691000 234 255 0 0.000000
387978.513000 3551513.101997 1.504000 150 255 0 0.000000
387983.639000 3551514.817001 1.405001 146 255 0 0.000000
387982.776000 3551513.846001 0.166000 97 255 0 0.000000
387981.436000 3551514.834999 2.504000 189 255 0 0.000000
387980.415000 3551514.639999 2.666000 195 255 0 0.000000
387979.426000 3551514.149002 2.305000 181 255 0 0.000000
387978.414000 3551513.791000 2.184000 176 255 0 0.000000
387982.683000 3551514.165001 0.200001 99 255 0 0.000000
387981.388000 3551514.967003 2.223000 177 255 0 0.000000
387980.313000 3551515.079002 2.943001 206 255 0 0.000000
387979.360000 3551514.377998 2.197001 177 255 0 0.000000
387978.393000 3551513.344002 0.881001 126 255 0 0.000000
387982.738000 3551513.917999 -0.839001 59 255 0 0.000000
387981.451000 3551514.575996 0.955000 128 255 0 0.000000
387980.279000 3551515.099998 2.457001 186 255 0 0.000000
387979.278000 3551514.730003 2.304001 180 255 0 0.000000
387982.682000 3551514.097000 -1.089001 49 255 0 0.000000
387981.404000 3551514.699997 0.629000 115 255 0 0.000000
387980.348000 3551514.478996 0.767000 121 255 0 0.000000
387979.260000 3551514.515999 1.379999 145 255 0 0.000000
387978.252000 3551513.848999 0.701000 118 255 0 0.000000
387982.616000 3551514.313004 -1.261000 42 255 0 0.000000
387981.442000 3551514.420998 -0.466999 74 255 0 0.000000
387980.272000 3551514.754997 0.732000 120 255 0 0.000000
387979.207000 3551514.601997 1.000999 130 255 0 0.000000
387978.183000 3551514.067001 0.556999 113 255 0 0.000000
387982.548000 3551514.541000 -1.410999 37 255 0 0.000000
387981.270000 3551515.143997 0.351999 105 255 0 0.000000
387980.199000 3551515.012001 0.665001 117 255 0 0.000000
387979.133000 3551514.885002 0.986000 130 255 0 0.000000
387978.104000 3551514.480003 0.775999 121 255 0 0.000000
387982.486000 3551514.740997 -1.617001 29 255 0 0.000000
387981.163000 3551515.557999 0.594000 115 255 0 0.000000
387980.100000 3551515.440002 0.934000 127 255 0 0.000000
387979.072000 3551515.042999 0.733999 120 255 0 0.000000
387978.100000 3551513.556000 -1.518000 32 255 0 0.000000
387980.032000 3551515.655998 0.784000 122 255 0 0.000000
387979.097000 3551514.363998 -1.153999 47 255 0 0.000000
387978.024000 3551513.852997 -1.548000 31 255 0 0.000000
387978.970000 3551515.163002 -0.172001 85 255 0 0.000000
387977.951000 3551514.126999 -1.601999 29 255 0 0.000000
387978.891000 3551515.490997 -0.106001 87 255 0 0.000000
387977.877000 3551514.397003 -1.673000 26 255 0 0.000000
387978.827000 3551515.662003 -0.355000 77 255 0 0.000000
387977.771000 3551513.956001 -3.788000 0 199 55 0.000000
387978.811000 3551514.761002 -3.441999 0 213 41 0.000000
387980.282000 3551511.738998 3.153999 214 255 0 0.000000
387980.209000 3551512.000999 3.090000 211 255 0 0.000000
387982.302000 3551512.330002 2.172001 176 255 0 0.000000
387981.213000 3551512.299004 2.601999 192 255 0 0.000000
387980.023000 3551513.148003 4.430000 255 246 0 0.000000
387979.007000 3551513.168999 4.908001 255 227 0 0.000000
387983.111000 3551513.464996 3.063000 210 255 0 0.000000
387982.243000 3551512.513000 1.962999 168 255 0 0.000000
387981.209000 3551512.161003 1.875000 164 255 0 0.000000
387979.884000 3551513.936996 5.233000 255 214 0 0.000000
387979.058000 3551512.043999 2.650000 194 255 0 0.000000
387983.032000 3551513.730003 3.013000 208 255 0 0.000000
387982.154000 3551512.835999 1.997999 169 255 0 0.000000
387980.913000 3551513.707001 3.933001 244 255 0 0.000000
387979.839000 3551514.010002 4.893000 255 228 0 0.000000
387982.079000 3551513.091003 1.912001 166 255 0 0.000000
387980.831000 3551514.016998 3.962000 246 255 0 0.000000
387979.802000 3551514.004997 4.410000 255 246 0 0.000000
387978.918000 3551512.569000 2.516001 189 255 0 0.000000
387983.062000 3551513.557999 1.690001 157 255 0 0.000000
387982.003000 3551513.355003 1.850000 163 255 0 0.000000
387980.775000 3551514.182999 3.761999 237 255 0 0.000000
387979.716000 3551514.408997 4.617001 255 238 0 0.000000
387978.844000 3551512.893997 2.565001 191 255 0 0.000000
387982.990000 3551513.795998 1.587999 153 255 0 0.000000
387981.973000 3551513.402000 1.415001 146 255 0 0.000000
387980.666000 3551514.664001 4.098000 251 255 0 0.000000
387979.716000 3551514.099998 3.614000 231 255 0 0.000000
387978.722000 3551513.829002 3.631001 232 255 0 0.000000
387982.888000 3551514.150002 1.681000 157 255 0 0.000000
387981.796000 3551514.129997 2.165001 175 255 0 0.000000
387980.634000 3551514.683998 3.636000 233 255 0 0.000000
387979.636000 3551514.448997 3.718000 236 255 0 0.000000
387978.694000 3551513.554001 2.674000 195 255 0 0.000000
387982.800000 3551514.448997 1.691000 157 255 0 0.000000
387981.704000 3551514.474998 2.261000 179 255 0 0.000000
387980.630000 3551514.537003 2.879999 203 255 0 0.000000
387979.555000 3551514.797997 3.834999 240 255 0 0.000000
387978.673000 3551513.157997 1.490000 149 255 0 0.000000
387982.930000 3551513.921997 0.187000 99 255 0 0.000000
387981.777000 3551514.041000 0.948999 128 255 0 0.000000
387980.546000 3551514.870003 2.964001 207 255 0 0.000000
387979.591000 3551514.161003 2.215000 177 255 0 0.000000
387978.572000 3551513.872002 2.218000 177 255 0 0.000000
387982.861000 3551514.153000 0.056999 94 255 0 0.000000
387981.728000 3551514.174004 0.649000 117 255 0 0.000000
387980.467000 3551515.165001 2.987000 207 255 0 0.000000
387979.520000 3551514.427002 2.172001 176 255 0 0.000000
387978.556000 3551513.349998 0.780001 121 255 0 0.000000
387982.851000 3551514.156998 -0.510000 71 255 0 0.000000
387981.601000 3551514.678001 1.028000 131 255 0 0.000000
387980.391000 3551515.450996 2.988001 207 255 0 0.000000
387979.451000 3551514.661003 2.066999 171 255 0 0.000000
387978.479000 3551513.688004 0.837000 124 255 0 0.000000
387982.821000 3551514.236000 -0.948000 55 255 0 0.000000
387981.518000 3551514.975998 1.031000 131 255 0 0.000000
387980.546000 3551514.292999 0.302999 103 255 0 0.000000
387979.405000 3551514.693001 1.593000 154 255 0 0.000000
387978.355000 3551514.791000 2.297001 180 255 0 0.000000
387982.786000 3551514.333000 -1.348000 39 255 0 0.000000
387981.616000 3551514.410004 -0.610001 68 255 0 0.000000
387980.467000 3551514.585999 0.294001 103 255 0 0.000000
387979.361000 3551514.705002 1.077999 133 255 0 0.000000
387978.337000 3551514.212997 0.709999 119 255 0 0.000000
387982.371000 3551515.882004 1.103001 134 255 0 0.000000
387981.438000 3551515.156998 0.257000 101 255 0 0.000000
387980.367000 3551515.015999 0.555000 113 255 0 0.000000
387979.292000 3551514.941002 0.974001 129 255 0 0.000000
387978.318000 3551513.611000 -0.962000 54 255 0 0.000000
387982.395000 3551515.759003 0.281000 102 255 0 0.000000
387981.324000 3551515.603996 0.554001 113 255 0 0.000000
387980.291000 3551515.290001 0.509001 111 255 0 0.000000
387979.232000 3551515.096001 0.705000 118 255 0 0.000000
387978.238000 3551513.990997 -0.829000 59 255 0 0.000000
387980.196000 3551515.680000 0.698999 118 255 0 0.000000
387979.207000 3551514.891998 -0.257000 81 255 0 0.000000
387978.162000 3551514.297997 -0.823000 59 255 0 0.000000
387980.203000 3551515.417000 -0.398001 76 255 0 0.000000
387979.125000 3551515.252998 -0.129000 86 255 0 0.000000
387978.167000 3551513.028999 -3.868000 0 196 58 0.000000
387979.051000 3551515.527000 -0.164000 85 255 0 0.000000
387978.085000 3551513.418999 -3.730000 0 201 53 0.000000
387979.026000 3551515.290001 -1.240999 43 255 0 0.000000
387977.962000 3551514.720001 -1.777000 23 255 0 0.000000
387977.848000 3551514.419998 -3.622999 0 206 48 0.000000
387980.569000 3551511.443001 2.586000 192 255 0 0.000000
387980.483000 3551511.819000 2.702000 196 255 0 0.000000
387981.532000 3551511.927002 1.905001 166 255 0 0.000000
387980.321000 3551512.749001 3.698000 235 255 0 0.000000
387979.250000 3551513.165001 4.809000 255 231 0 0.000000
387981.345000 3551512.820999 2.860001 202 255 0 0.000000
387980.125000 3551513.961998 5.179001 255 216 0 0.000000
387979.198000 3551513.250000 4.480000 255 244 0 0.000000
387981.149000 3551513.776001 3.950001 245 255 0 0.000000
387980.086000 3551513.990997 4.768000 255 233 0 0.000000
387979.140000 3551513.403000 4.261999 255 252 0 0.000000
387982.350000 3551513.024002 1.707001 157 255 0 0.000000
387981.156000 3551513.585999 3.148001 213 255 0 0.000000
387980.058000 3551513.934998 4.205999 255 255 0 0.000000
387979.132000 3551512.964996 3.072001 210 255 0 0.000000
387983.173000 3551514.110001 2.562000 191 255 0 0.000000
387982.252000 3551513.388000 1.813999 162 255 0 0.000000
387981.202000 3551513.170998 1.945000 167 255 0 0.000000
387979.994000 3551514.144997 4.080999 250 255 0 0.000000
387979.021000 3551513.745003 3.879000 242 255 0 0.000000
387983.241000 3551513.829002 1.544001 151 255 0 0.000000
387982.178000 3551513.639000 1.724001 158 255 0 0.000000
387980.931000 3551514.566002 3.827999 240 255 0 0.000000
387979.937000 3551514.307999 3.865000 242 255 0 0.000000
387978.959000 3551513.917999 3.677999 234 255 0 0.000000
387983.258000 3551513.737999 0.839001 124 255 0 0.000000
387982.039000 3551514.186996 2.162001 175 255 0 0.000000
387980.860000 3551514.822998 3.775999 238 255 0 0.000000
387979.877000 3551514.490997 3.688999 234 255 0 0.000000
387978.891000 3551514.188004 3.648001 233 255 0 0.000000
387983.269000 3551513.668999 0.169001 98 255 0 0.000000
387982.038000 3551514.114998 1.510000 150 255 0 0.000000
387980.875000 3551514.573997 2.839001 201 255 0 0.000000
387979.807000 3551514.751999 3.650000 233 255 0 0.000000
387978.811000 3551514.610001 3.885000 243 255 0 0.000000
387983.175000 3551513.989998 0.194000 99 255 0 0.000000
387982.145000 3551513.540001 -0.080000 88 255 0 0.000000
387980.790000 3551514.903000 2.909000 204 255 0 0.000000
387979.833000 3551514.225998 2.211000 177 255 0 0.000000
387978.810000 3551513.973999 2.274000 180 255 0 0.000000
387983.108000 3551514.216003 0.052000 94 255 0 0.000000
387981.978000 3551514.219002 0.612000 115 255 0 0.000000
387980.711000 3551515.209999 2.952000 206 255 0 0.000000
387979.760000 3551514.505997 2.198000 177 255 0 0.000000
387978.726000 3551514.446999 2.603001 192 255 0 0.000000
387983.112000 3551514.171997 -0.590000 68 255 0 0.000000
387981.839000 3551514.772003 1.097000 134 255 0 0.000000
387980.637000 3551515.480003 2.938999 205 255 0 0.000000
387979.675000 3551514.884003 2.368000 183 255 0 0.000000
387978.663000 3551514.647003 2.452999 186 255 0 0.000000
387983.025000 3551514.469002 -0.606001 68 255 0 0.000000
387981.853000 3551514.619003 0.247999 101 255 0 0.000000
387980.599000 3551515.528999 2.499001 189 255 0 0.000000
387979.641000 3551514.824997 1.725000 158 255 0 0.000000
387978.647000 3551514.113998 0.955000 128 255 0 0.000000
387981.920000 3551514.211998 -1.110001 48 255 0 0.000000
387980.751000 3551514.417999 -0.141001 86 255 0 0.000000
387979.617000 3551514.679001 0.908001 127 255 0 0.000000
387978.579000 3551514.341003 0.826000 124 255 0 0.000000
387982.710000 3551515.588997 0.408001 107 255 0 0.000000
387981.852000 3551514.434998 -1.268999 42 255 0 0.000000
387980.612000 3551515.084000 0.565001 113 255 0 0.000000
387979.541000 3551514.972000 0.910000 127 255 0 0.000000
387978.505000 3551514.670998 0.893000 126 255 0 0.000000
387981.594000 3551515.553001 0.340000 105 255 0 0.000000
387980.545000 3551515.300003 0.417000 107 255 0 0.000000
387979.462000 3551515.304001 0.992001 130 255 0 0.000000
387978.434000 3551514.945000 0.861000 125 255 0 0.000000
387981.636000 3551515.260002 -0.827999 59 255 0 0.000000
387980.437000 3551515.776001 0.783001 121 255 0 0.000000
387979.405000 3551515.430000 0.677000 118 255 0 0.000000
387978.412000 3551514.380997 -0.775999 62 255 0 0.000000
387979.372000 3551515.323997 -0.111000 87 255 0 0.000000
387978.340000 3551514.638000 -0.871000 58 255 0 0.000000
387982.725000 3551515.415001 -2.378000 0 254 0 0.000000
387979.296000 3551515.613998 -0.120001 87 255 0 0.000000
387978.289000 3551514.482002 -1.771999 23 255 0 0.000000
387978.213000 3551514.823997 -1.681000 26 255 0 0.000000
387977.980000 3551514.279999 -5.379000 0 138 116 0.000000
387979.619000 3551512.331001 4.344999 255 249 0 0.000000
387980.662000 3551512.049004 2.992001 207 255 0 0.000000
387979.549000 3551512.628998 4.355000 255 249 0 0.000000
387981.738000 3551511.970001 1.899000 165 255 0 0.000000
387980.519000 3551512.834000 3.761000 237 255 0 0.000000
387979.461000 3551513.111000 4.649000 255 237 0 0.000000
387979.395000 3551513.348999 4.565001 255 240 0 0.000000
387981.477000 3551513.120003 2.788000 200 255 0 0.000000
387980.465000 3551512.708000 2.589001 192 255 0 0.000000
387979.336000 3551513.521004 4.379000 255 248 0 0.000000
387982.540000 3551513.140999 1.829000 163 255 0 0.000000
387981.399000 3551513.411003 2.778999 199 255 0 0.000000
387980.297000 3551513.699997 3.740999 237 255 0 0.000000
387979.273000 3551513.728996 4.252001 255 252 0 0.000000
387983.392000 3551514.098999 2.462000 187 255 0 0.000000
387982.473000 3551513.364998 1.691000 157 255 0 0.000000
387981.322000 3551513.690002 2.743999 198 255 0 0.000000
387980.181000 3551514.310997 4.275000 255 252 0 0.000000
387979.221000 3551513.817001 3.913000 243 255 0 0.000000
387982.385000 3551513.680000 1.711000 158 255 0 0.000000
387981.321000 3551513.546997 1.985001 169 255 0 0.000000
387980.107000 3551514.599998 4.283001 255 252 0 0.000000
387979.142000 3551514.205002 4.080999 250 255 0 0.000000
387982.318000 3551513.903999 1.582001 153 255 0 0.000000
387981.235000 3551513.878998 2.049999 171 255 0 0.000000
387980.040000 3551514.851997 4.235001 255 253 0 0.000000
387979.095000 3551514.233002 3.646000 233 255 0 0.000000
387983.327000 3551514.267998 1.170000 137 255 0 0.000000
387981.077000 3551514.627998 2.850000 202 255 0 0.000000
387980.062000 3551514.382004 2.916000 204 255 0 0.000000
387979.013000 3551514.657997 3.882999 242 255 0 0.000000
387983.434000 3551513.849998 -0.145000 85 255 0 0.000000
387981.000000 3551514.918999 2.862000 202 255 0 0.000000
387979.998000 3551514.591003 2.784000 199 255 0 0.000000
387979.013000 3551514.056999 2.344999 183 255 0 0.000000
387983.386000 3551514.000000 -0.431999 74 255 0 0.000000
387982.190000 3551514.242996 0.575001 114 255 0 0.000000
387981.079000 3551514.288002 1.195999 138 255 0 0.000000
387980.026000 3551514.041000 1.278999 141 255 0 0.000000
387978.939000 3551514.379997 2.399000 184 255 0 0.000000
387982.050000 3551514.796997 1.047001 132 255 0 0.000000
387980.887000 3551515.246002 2.413000 185 255 0 0.000000
387979.944000 3551514.393997 1.381001 145 255 0 0.000000
387978.878000 3551514.538002 2.162001 175 255 0 0.000000
387982.161000 3551514.202003 -0.632000 67 255 0 0.000000
387980.806000 3551515.561996 2.475000 187 255 0 0.000000
387979.862000 3551514.740997 1.482000 149 255 0 0.000000
387978.850000 3551514.210999 1.045000 132 255 0 0.000000
387983.254000 3551514.415001 -1.400999 37 255 0 0.000000
387982.107000 3551514.363998 -0.910000 56 255 0 0.000000
387980.989000 3551514.283997 -0.490000 72 255 0 0.000000
387979.816000 3551514.778000 1.000000 130 255 0 0.000000
387978.769000 3551514.617996 1.242001 139 255 0 0.000000
387982.061000 3551514.483002 -1.277000 42 255 0 0.000000
387980.825000 3551515.093002 0.481001 110 255 0 0.000000
387979.739000 3551515.092003 1.040001 132 255 0 0.000000
387978.708000 3551514.746002 0.934000 127 255 0 0.000000
387981.922000 3551515.038002 -0.768999 62 255 0 0.000000
387980.866000 3551514.652000 -0.936001 55 255 0 0.000000
387979.668000 3551515.349998 0.990000 130 255 0 0.000000
387978.647000 3551514.885002 0.659000 117 255 0 0.000000
387977.620000 3551513.390999 -1.584000 30 255 0 0.000000
387980.698000 3551515.487999 0.122000 96 255 0 0.000000
387978.643000 3551514.040001 -1.528000 32 255 0 0.000000
387977.547000 3551513.681000 -1.627001 28 255 0 0.000000
387979.543000 3551515.707001 0.552999 113 255 0 0.000000
387978.576000 3551514.213997 -1.788000 22 255 0 0.000000
387979.559000 3551515.147003 -1.143000 47 255 0 0.000000
387978.543000 3551513.750000 -3.305000 0 218 36 0.000000
387979.489000 3551515.371002 -1.301001 41 255 0 0.000000
387978.422000 3551514.878998 -1.686001 26 255 0 0.000000
387978.385000 3551514.383003 -3.305000 0 218 36 0.000000
387978.273000 3551514.050003 -5.292000 0 141 113 0.000000
387980.835000 3551511.759003 3.044001 210 255 0 0.000000
387979.652000 3551512.599998 4.341999 255 249 0 0.000000
387982.749000 3551512.863998 2.905001 204 255 0 0.000000
387981.836000 3551511.953003 1.902000 166 255 0 0.000000
387979.560000 3551513.120003 4.695999 255 235 0 0.000000
387981.741000 3551512.334999 2.020000 170 255 0 0.000000
387980.631000 3551512.463997 2.712999 197 255 0 0.000000
387979.498000 3551513.318001 4.547001 255 241 0 0.000000
387982.557000 3551513.568001 3.073999 210 255 0 0.000000
387981.573000 3551513.120003 2.808001 201 255 0 0.000000
387980.559000 3551512.719002 2.631001 193 255 0 0.000000
387979.416000 3551513.738998 4.754000 255 233 0 0.000000
387982.631000 3551513.153000 1.870001 164 255 0 0.000000
387981.504000 3551513.356003 2.709000 196 255 0 0.000000
387980.393000 3551513.706001 3.775999 238 255 0 0.000000
387979.378000 3551513.661003 4.167999 253 255 0 0.000000
387982.543000 3551513.473000 1.912001 166 255 0 0.000000
387981.430000 3551513.624001 2.669001 195 255 0 0.000000
387980.284000 3551514.283997 4.268000 255 252 0 0.000000
387979.321000 3551513.796997 3.924000 244 255 0 0.000000
387982.484000 3551513.655998 1.705999 157 255 0 0.000000
387981.443000 3551513.385002 1.747000 160 255 0 0.000000
387980.208000 3551514.584000 4.290001 255 251 0 0.000000
387979.243000 3551514.174004 4.065001 249 255 0 0.000000
387982.405000 3551513.929001 1.656000 156 255 0 0.000000
387981.319000 3551513.932999 2.174000 176 255 0 0.000000
387980.144000 3551514.803001 4.181000 254 255 0 0.000000
387979.185000 3551514.309998 3.812000 240 255 0 0.000000
387983.396000 3551514.350998 1.349001 144 255 0 0.000000
387981.222000 3551514.334999 2.360001 183 255 0 0.000000
387980.182000 3551514.178001 2.591999 192 255 0 0.000000
387982.445000 3551513.570999 -0.079000 88 255 0 0.000000
387981.090000 3551514.941002 2.922001 205 255 0 0.000000
387980.120000 3551514.365997 2.408001 185 255 0 0.000000
387979.110000 3551514.013000 2.296000 180 255 0 0.000000
387978.101000 3551513.237000 1.457001 148 255 0 0.000000
387982.985000 3551515.828003 3.000000 208 255 0 0.000000
387982.277000 3551514.257004 0.624001 115 255 0 0.000000
387981.183000 3551514.216003 1.089001 133 255 0 0.000000
387980.061000 3551514.528000 2.183001 176 255 0 0.000000
387979.035000 3551514.349998 2.378000 183 255 0 0.000000
387978.032000 3551513.531998 1.451000 148 255 0 0.000000
387983.331000 3551514.504997 -0.028000 90 255 0 0.000000
387982.137000 3551514.810997 1.101999 134 255 0 0.000000
387980.987000 3551515.210999 2.378000 183 255 0 0.000000
387980.052000 3551514.258003 1.167999 136 255 0 0.000000
387978.974000 3551514.504997 2.139000 174 255 0 0.000000
387982.246000 3551514.213997 -0.576000 69 255 0 0.000000
387980.895000 3551515.583000 2.542999 190 255 0 0.000000
387979.988000 3551514.447998 0.978001 130 255 0 0.000000
387982.204000 3551514.314003 -0.972000 53 255 0 0.000000
387981.072000 3551514.316002 -0.393999 76 255 0 0.000000
387979.890000 3551514.925003 1.311001 142 255 0 0.000000
387978.872000 3551514.448997 0.971001 129 255 0 0.000000
387982.125000 3551514.584000 -1.046000 51 255 0 0.000000
387980.920000 3551515.045998 0.424000 108 255 0 0.000000
387979.834000 3551515.042999 0.982000 130 255 0 0.000000
387978.796000 3551514.805000 1.083000 133 255 0 0.000000
387977.780000 3551512.952003 -1.790001 22 255 0 0.000000
387982.011000 3551515.021004 -0.770000 62 255 0 0.000000
387980.842000 3551515.339996 0.438000 109 255 0 0.000000
387979.762000 3551515.318001 0.965000 129 255 0 0.000000
387978.802000 3551513.806999 -1.337999 39 255 0 0.000000
387977.708000 3551513.346001 -1.618999 29 255 0 0.000000
387982.065000 3551514.669998 -2.066000 11 255 0 0.000000
387979.708000 3551515.417000 0.594000 115 255 0 0.000000
387978.726000 3551514.120003 -1.330999 40 255 0 0.000000
387977.633000 3551513.682999 -1.576000 30 255 0 0.000000
387979.633000 3551515.697998 0.573000 114 255 0 0.000000
387978.663000 3551514.186996 -1.796000 22 255 0 0.000000
387977.561000 3551513.908997 -1.733999 24 255 0 0.000000
387978.579000 3551514.619003 -1.558001 31 255 0 0.000000
387979.572000 3551515.382004 -1.245001 43 255 0 0.000000
387978.504000 3551514.914001 -1.576000 30 255 0 0.000000
387978.430000 3551515.227997 -1.533001 32 255 0 0.000000
387978.324000 3551514.754997 -3.771000 0 200 54 0.000000
387979.792000 3551512.508003 4.198000 255 255 0 0.000000
387980.825000 3551512.260002 2.870001 203 255 0 0.000000
387979.715000 3551512.860001 4.281000 255 252 0 0.000000
387982.764000 3551513.309998 3.139999 213 255 0 0.000000
387981.869000 3551512.345001 2.037001 171 255 0 0.000000
387980.761000 3551512.472000 2.730000 198 255 0 0.000000
387979.623000 3551513.402000 4.687000 255 236 0 0.000000
387982.675000 3551513.629997 3.183001 215 255 0 0.000000
387981.708000 3551513.105003 2.791000 200 255 0 0.000000
387980.695000 3551512.678001 2.573000 191 255 0 0.000000
387979.524000 3551514.023003 5.222000 255 215 0 0.000000
387982.619000 3551513.805000 2.978001 207 255 0 0.000000
387981.642000 3551513.320000 2.646999 194 255 0 0.000000
387980.515000 3551513.790001 3.917000 243 255 0 0.000000
387979.509000 3551513.663002 4.171000 253 255 0 0.000000
387982.690000 3551513.397003 1.775000 160 255 0 0.000000
387981.649000 3551513.115997 1.802999 161 255 0 0.000000
387980.416000 3551514.277000 4.250999 255 252 0 0.000000
387979.446000 3551513.867996 4.038000 248 255 0 0.000000
387982.608000 3551513.685997 1.752001 160 255 0 0.000000
387981.577000 3551513.360001 1.697001 157 255 0 0.000000
387980.371000 3551514.338997 3.868999 242 255 0 0.000000
387982.515000 3551514.024002 1.823999 163 255 0 0.000000
387981.449000 3551513.940002 2.190001 177 255 0 0.000000
387980.365000 3551514.080002 2.938999 205 255 0 0.000000
387979.317000 3551514.316002 3.830000 240 255 0 0.000000
387983.525000 3551514.359001 1.370001 145 255 0 0.000000
387982.604000 3551513.528999 0.414000 107 255 0 0.000000
387981.370000 3551514.235001 2.195000 177 255 0 0.000000
387980.311000 3551514.198997 2.639999 194 255 0 0.000000
387979.301000 3551513.872002 2.573000 191 255 0 0.000000
387981.227000 3551514.914001 2.882999 203 255 0 0.000000
387980.245000 3551514.416000 2.510000 189 255 0 0.000000
387979.259000 3551513.764000 1.874001 164 255 0 0.000000
387978.232000 3551513.261002 1.514999 151 255 0 0.000000
387982.406000 3551514.260002 0.639999 116 255 0 0.000000
387981.142000 3551515.241997 2.962999 207 255 0 0.000000
387980.249000 3551514.042999 1.327000 143 255 0 0.000000
387979.172000 3551514.285004 2.275999 180 255 0 0.000000
387978.163000 3551513.561996 1.521999 151 255 0 0.000000
387982.269000 3551514.804001 1.101999 134 255 0 0.000000
387981.252000 3551514.397003 0.893999 126 255 0 0.000000
387980.106000 3551514.918999 2.382999 184 255 0 0.000000
387979.099000 3551514.607002 2.337000 182 255 0 0.000000
387982.440000 3551513.907997 -1.150000 47 255 0 0.000000
387981.212000 3551514.445999 0.429001 108 255 0 0.000000
387980.115000 3551514.464996 1.016001 131 255 0 0.000000
387979.054000 3551514.485001 1.587000 153 255 0 0.000000
387978.030000 3551513.751999 0.798000 122 255 0 0.000000
387982.327000 3551514.344002 -0.910000 56 255 0 0.000000
387981.146000 3551514.660004 0.266001 102 255 0 0.000000
387980.054000 3551514.632004 0.773001 121 255 0 0.000000
387979.000000 3551514.485001 1.051001 132 255 0 0.000000
387977.963000 3551513.903000 0.531000 112 255 0 0.000000
387982.247000 3551514.620003 -0.959999 54 255 0 0.000000
387981.058000 3551515.002998 0.358999 105 255 0 0.000000
387979.975000 3551514.957001 0.836000 124 255 0 0.000000
387978.932000 3551514.726997 0.955999 128 255 0 0.000000
387977.910000 3551512.960999 -1.747000 23 255 0 0.000000
387982.143000 3551515.010002 -0.783001 61 255 0 0.000000
387980.966000 3551515.375000 0.513000 111 255 0 0.000000
387979.886000 3551515.382004 1.094000 134 255 0 0.000000
387978.866000 3551514.902000 0.739000 120 255 0 0.000000
387977.836000 3551513.347000 -1.608000 29 255 0 0.000000
387982.187000 3551514.695999 -2.014999 13 255 0 0.000000
387979.832000 3551515.459999 0.677999 118 255 0 0.000000
387978.860000 3551514.000999 -1.552000 31 255 0 0.000000
387977.762000 3551513.653000 -1.622999 29 255 0 0.000000
387978.775000 3551514.472000 -1.235001 44 255 0 0.000000
387977.689000 3551513.945999 -1.652000 27 255 0 0.000000
387978.706000 3551514.652000 -1.473000 34 255 0 0.000000
387977.616000 3551514.235001 -1.684000 26 255 0 0.000000
387978.602000 3551515.570999 -0.239000 82 255 0 0.000000
387978.556000 3551515.292000 -1.389999 38 255 0 0.000000
387981.091000 3551512.186996 2.746000 198 255 0 0.000000
387980.034000 3551512.129997 3.118999 213 255 0 0.000000
387983.021000 3551513.305000 3.120001 213 255 0 0.000000
387981.029000 3551512.377998 2.559000 191 255 0 0.000000
387979.826000 3551513.916000 5.483999 255 204 0 0.000000
387983.003000 3551513.311996 2.638000 194 255 0 0.000000
387982.044000 3551512.657997 2.035999 171 255 0 0.000000
387980.994000 3551512.362000 2.040001 171 255 0 0.000000
387979.783000 3551513.910004 5.021999 255 222 0 0.000000
387983.012000 3551513.195999 1.936001 166 255 0 0.000000
387982.065000 3551512.383003 1.069000 133 255 0 0.000000
387980.767000 3551513.796997 3.913000 243 255 0 0.000000
387979.726000 3551514.057999 4.804001 255 231 0 0.000000
387982.950000 3551513.397003 1.767000 160 255 0 0.000000
387981.814000 3551513.650002 2.698000 196 255 0 0.000000
387980.755000 3551513.613998 3.125000 213 255 0 0.000000
387979.669000 3551514.219002 4.604000 255 239 0 0.000000
387978.746000 3551512.661003 2.507000 189 255 0 0.000000
387982.876000 3551513.649002 1.679001 157 255 0 0.000000
387981.839000 3551513.342003 1.657000 156 255 0 0.000000
387980.590000 3551514.598000 4.292999 255 251 0 0.000000
387979.640000 3551514.003998 3.761000 237 255 0 0.000000
387978.677000 3551512.931999 2.450001 186 255 0 0.000000
387982.772000 3551514.037003 1.830000 163 255 0 0.000000
387981.699000 3551513.984001 2.247000 178 255 0 0.000000
387980.631000 3551513.991997 2.763000 198 255 0 0.000000
387979.574000 3551514.250000 3.688999 234 255 0 0.000000
387978.599000 3551513.481003 2.870001 203 255 0 0.000000
387982.700000 3551514.286003 1.750000 160 255 0 0.000000
387981.642000 3551514.154999 2.032000 170 255 0 0.000000
387980.549000 3551514.344002 2.872999 203 255 0 0.000000
387979.498000 3551514.616997 3.833000 240 255 0 0.000000
387978.567000 3551512.709000 1.065001 133 255 0 0.000000
387983.686000 3551514.706001 1.450001 148 255 0 0.000000
387982.847000 3551513.537003 -0.141001 86 255 0 0.000000
387981.537000 3551514.599998 2.306999 181 255 0 0.000000
387980.476000 3551514.625999 2.863001 202 255 0 0.000000
387979.496000 3551514.035004 2.329000 182 255 0 0.000000
387978.489000 3551513.278000 1.523001 151 255 0 0.000000
387983.620000 3551514.927002 1.318001 142 255 0 0.000000
387982.731000 3551513.976997 0.108999 95 255 0 0.000000
387981.623000 3551513.930000 0.570000 113 255 0 0.000000
387980.401000 3551514.926003 2.892000 204 255 0 0.000000
387979.457000 3551513.903000 1.582001 153 255 0 0.000000
387981.396000 3551515.093002 2.149000 174 255 0 0.000000
387980.354000 3551514.985001 2.476000 187 255 0 0.000000
387979.351000 3551514.636002 2.357000 183 255 0 0.000000
387978.360000 3551513.447998 0.764000 121 255 0 0.000000
387982.692000 3551513.983002 -1.028999 51 255 0 0.000000
387981.425000 3551514.740997 0.952999 128 255 0 0.000000
387980.293000 3551515.164001 2.274000 180 255 0 0.000000
387978.289000 3551513.786003 0.829000 124 255 0 0.000000
387982.622000 3551514.212997 -1.174000 46 255 0 0.000000
387981.354000 3551514.989998 0.871000 125 255 0 0.000000
387980.322000 3551514.570999 0.642000 116 255 0 0.000000
387979.256000 3551514.544998 1.136999 136 255 0 0.000000
387978.221000 3551514.009003 0.695999 118 255 0 0.000000
387982.534000 3551514.528999 -1.150999 47 255 0 0.000000
387981.412000 3551514.448997 -0.719999 63 255 0 0.000000
387980.248000 3551514.848999 0.611000 115 255 0 0.000000
387979.191000 3551514.716003 0.913000 127 255 0 0.000000
387978.167000 3551513.444000 -0.885000 57 255 0 0.000000
387982.489000 3551514.641998 -1.533001 32 255 0 0.000000
387981.349000 3551514.638000 -0.948999 55 255 0 0.000000
387980.170000 3551515.156998 0.632000 116 255 0 0.000000
387979.117000 3551515.035004 0.952999 128 255 0 0.000000
387978.099000 3551513.366997 -1.608000 29 255 0 0.000000
387982.432000 3551514.816002 -1.801001 21 255 0 0.000000
387981.143000 3551515.707001 0.556000 113 255 0 0.000000
387980.071000 3551515.653999 1.025999 131 255 0 0.000000
387979.106000 3551514.317001 -0.979000 53 255 0 0.000000
387978.021000 3551514.030998 -0.941999 55 255 0 0.000000
387980.131000 3551514.712997 -1.375999 38 255 0 0.000000
387979.045000 3551514.406998 -1.375999 38 255 0 0.000000
387977.955000 3551513.997002 -1.570999 30 255 0 0.000000
387978.931000 3551515.372002 -0.090000 88 255 0 0.000000
387977.880000 3551514.296997 -1.603001 29 255 0 0.000000
387978.863000 3551515.592003 -0.232000 83 255 0 0.000000
387977.809000 3551514.528999 -1.738001 24 255 0 0.000000
387978.818000 3551515.352997 -1.297001 41 255 0 0.000000
387980.380000 3551511.607002 2.594000 192 255 0 0.000000
387982.429000 3551512.266998 2.207001 177 255 0 0.000000
387981.419000 3551511.670998 1.729000 159 255 0 0.000000
387980.282000 3551512.150002 2.959000 206 255 0 0.000000
387979.185000 3551513.059998 4.837000 255 230 0 0.000000
387982.414000 3551512.212997 1.621000 154 255 0 0.000000
387981.329000 3551512.065002 1.870001 164 255 0 0.000000
387980.066000 3551513.961998 5.385000 255 209 0 0.000000
387979.121000 3551513.320999 4.802000 255 231 0 0.000000
387983.181000 3551513.686996 3.087000 211 255 0 0.000000
387982.279000 3551512.804001 2.093000 172 255 0 0.000000
387981.068000 3551513.688004 4.025999 248 255 0 0.000000
387980.021000 3551513.990997 4.971001 255 225 0 0.000000
387979.110000 3551512.507004 3.032000 209 255 0 0.000000
387983.184000 3551513.610001 2.448999 186 255 0 0.000000
387982.353000 3551512.257004 0.657000 117 255 0 0.000000
387981.061000 3551513.494003 3.221001 216 255 0 0.000000
387979.982000 3551513.954002 4.445000 255 245 0 0.000000
387983.182000 3551513.553001 1.840000 163 255 0 0.000000
387982.140000 3551513.290001 1.889999 165 255 0 0.000000
387980.933000 3551514.188004 3.899000 243 255 0 0.000000
387979.922000 3551514.148003 4.294001 255 251 0 0.000000
387978.972000 3551513.113998 3.052000 210 255 0 0.000000
387983.121000 3551513.746002 1.650999 156 255 0 0.000000
387982.076000 3551513.492996 1.716999 158 255 0 0.000000
387980.867000 3551514.415001 3.792000 239 255 0 0.000000
387979.866000 3551514.262001 4.000999 247 255 0 0.000000
387978.884000 3551513.844002 3.767000 237 255 0 0.000000
387983.055000 3551513.971001 1.514000 150 255 0 0.000000
387981.956000 3551514.013000 2.097000 173 255 0 0.000000
387980.796000 3551514.683998 3.761999 237 255 0 0.000000
387979.809000 3551514.410004 3.766001 237 255 0 0.000000
387978.822000 3551514.044998 3.620001 232 255 0 0.000000
387982.985000 3551514.208000 1.408001 146 255 0 0.000000
387981.871000 3551514.339996 2.159000 175 255 0 0.000000
387980.793000 3551514.431000 2.825001 201 255 0 0.000000
387979.745000 3551514.637001 3.669001 234 255 0 0.000000
387978.760000 3551514.223999 3.440001 225 255 0 0.000000
387983.042000 3551513.879997 0.267000 102 255 0 0.000000
387981.908000 3551513.976997 0.978001 130 255 0 0.000000
387980.716000 3551514.738998 2.853001 202 255 0 0.000000
387979.737000 3551514.150002 2.313000 181 255 0 0.000000
387978.710000 3551514.014999 2.575001 192 255 0 0.000000
387982.982000 3551514.070999 0.063999 94 255 0 0.000000
387981.858000 3551514.100998 0.664000 117 255 0 0.000000
387980.638000 3551515.066002 2.933001 205 255 0 0.000000
387979.679000 3551514.293999 2.061001 171 255 0 0.000000
387978.649000 3551514.140999 2.299000 180 255 0 0.000000
387982.958000 3551514.106003 -0.426001 75 255 0 0.000000
387981.759000 3551514.513000 0.882000 126 255 0 0.000000
387980.564000 3551515.363998 2.966999 207 255 0 0.000000
387979.605000 3551514.637001 2.164000 175 255 0 0.000000
387978.578000 3551514.581001 2.568001 191 255 0 0.000000
387982.905000 3551514.261002 -0.712999 64 255 0 0.000000
387981.660000 3551514.921997 1.087000 133 255 0 0.000000
387980.529000 3551515.339996 2.395000 184 255 0 0.000000
387979.551000 3551514.682999 1.711000 158 255 0 0.000000
387978.513000 3551514.766998 2.379999 183 255 0 0.000000
387982.877000 3551514.306999 -1.224001 44 255 0 0.000000
387981.572000 3551515.267998 1.174000 137 255 0 0.000000
387980.454000 3551515.633003 2.400999 184 255 0 0.000000
387979.480000 3551514.953003 1.663000 156 255 0 0.000000
387978.466000 3551514.216003 0.841999 124 255 0 0.000000
387977.412000 3551514.218002 1.379000 145 255 0 0.000000
387982.809000 3551514.532997 -1.377001 38 255 0 0.000000
387981.567000 3551515.125999 0.350000 105 255 0 0.000000
387980.500000 3551514.922997 0.525999 112 255 0 0.000000
387979.440000 3551514.819000 0.879999 126 255 0 0.000000
387978.398000 3551514.475998 0.785999 122 255 0 0.000000
387981.584000 3551514.855003 -0.740999 62 255 0 0.000000
387980.436000 3551515.123001 0.354000 105 255 0 0.000000
387979.366000 3551515.148003 0.959999 129 255 0 0.000000
387978.330000 3551514.803001 0.854000 124 255 0 0.000000
387980.339000 3551515.598000 0.702000 118 255 0 0.000000
387979.303000 3551515.297997 0.681000 118 255 0 0.000000
387978.274000 3551514.214996 -0.823000 59 255 0 0.000000
387979.231000 3551515.589996 0.681000 118 255 0 0.000000
387978.224000 3551512.903999 -3.922001 0 194 60 0.000000
387979.184000 3551515.470001 -0.132999 86 255 0 0.000000
387978.147000 3551513.280998 -3.827000 0 198 56 0.000000
387978.064000 3551514.650002 -1.753000 23 255 0 0.000000
387979.118000 3551514.617996 -3.049999 0 228 26 0.000000
387980.574000 3551512.019997 3.009001 208 255 0 0.000000
387979.491000 3551512.555000 4.290001 255 251 0 0.000000
387981.622000 3551511.954002 1.955000 167 255 0 0.000000
387980.454000 3551512.794998 3.757999 237 255 0 0.000000
387979.416000 3551512.995003 4.518999 255 243 0 0.000000
387981.542000 3551512.265999 1.961000 168 255 0 0.000000
387980.386000 3551513.058998 3.711000 236 255 0 0.000000
387979.346000 3551513.357002 4.632000 255 238 0 0.000000
387981.392000 3551513.087997 2.813000 201 255 0 0.000000
387980.315000 3551513.349998 3.705999 235 255 0 0.000000
387979.286000 3551513.522003 4.437000 255 246 0 0.000000
387982.450000 3551513.085999 1.823000 162 255 0 0.000000
387981.296000 3551513.529999 3.056000 210 255 0 0.000000
387980.243000 3551513.658997 3.736000 237 255 0 0.000000
387979.226000 3551513.700996 4.261000 255 252 0 0.000000
387983.315000 3551514.067001 2.493999 188 255 0 0.000000
387982.376000 3551513.343002 1.738001 159 255 0 0.000000
387981.246000 3551513.639000 2.735001 198 255 0 0.000000
387980.142000 3551514.273003 4.271000 255 252 0 0.000000
387979.168000 3551513.792000 3.927999 244 255 0 0.000000
387983.343000 3551513.884003 1.649000 155 255 0 0.000000
387982.293000 3551513.661003 1.764000 160 255 0 0.000000
387981.243000 3551513.402000 1.820999 162 255 0 0.000000
387980.071000 3551514.570999 4.292000 255 251 0 0.000000
387979.108000 3551513.933998 3.684000 234 255 0 0.000000
387983.312000 3551513.953003 1.242001 139 255 0 0.000000
387982.229000 3551513.869003 1.608000 154 255 0 0.000000
387981.149000 3551513.827003 2.042000 171 255 0 0.000000
387980.006000 3551514.819000 4.236000 255 253 0 0.000000
387979.040000 3551514.264999 3.760000 237 255 0 0.000000
387982.268000 3551513.513000 0.436001 108 255 0 0.000000
387981.015000 3551514.558998 2.802999 200 255 0 0.000000
387980.000000 3551514.360001 2.941999 206 255 0 0.000000
387978.970000 3551514.633003 3.893000 243 255 0 0.000000
387983.321000 3551513.780998 -0.167999 85 255 0 0.000000
387982.194000 3551513.767998 0.351000 105 255 0 0.000000
387980.940000 3551514.857002 2.826000 201 255 0 0.000000
387979.957000 3551514.342003 2.412001 185 255 0 0.000000
387978.942000 3551513.973000 2.266001 179 255 0 0.000000
387983.213000 3551514.181999 0.011000 91 255 0 0.000000
387982.086000 3551514.224998 0.632999 116 255 0 0.000000
387980.862000 3551515.179001 2.889000 204 255 0 0.000000
387979.898000 3551514.474998 2.129000 174 255 0 0.000000
387978.867000 3551514.425003 2.542000 190 255 0 0.000000
387983.145000 3551514.410004 -0.135000 86 255 0 0.000000
387981.957000 3551514.795998 1.132000 136 255 0 0.000000
387980.829000 3551515.155998 2.325001 182 255 0 0.000000
387979.850000 3551514.494003 1.635000 155 255 0 0.000000
387978.805000 3551514.567001 2.280001 180 255 0 0.000000
387981.878000 3551515.089996 1.143999 136 255 0 0.000000
387980.745000 3551515.519997 2.482000 188 255 0 0.000000
387979.805000 3551514.450996 1.037001 132 255 0 0.000000
387978.761000 3551514.179001 1.070000 133 255 0 0.000000
387983.098000 3551514.475998 -1.163000 46 255 0 0.000000
387982.008000 3551514.192001 -1.132000 47 255 0 0.000000
387980.844000 3551514.426003 -0.121000 87 255 0 0.000000
387979.702000 3551515.122002 1.721001 158 255 0 0.000000
387978.692000 3551514.379997 0.882000 126 255 0 0.000000
387981.955000 3551514.328003 -1.462999 35 255 0 0.000000
387980.725000 3551515.068001 0.531000 112 255 0 0.000000
387979.659000 3551515.049004 1.046000 132 255 0 0.000000
387978.624000 3551514.663002 0.864000 125 255 0 0.000000
387981.814000 3551514.973999 -0.797001 60 255 0 0.000000
387980.654000 3551515.317001 0.444000 109 255 0 0.000000
387979.594000 3551515.238998 0.848000 124 255 0 0.000000
387978.574000 3551514.075996 -0.797001 60 255 0 0.000000
387980.682000 3551514.739998 -1.261999 42 255 0 0.000000
387979.543000 3551515.219002 0.246000 101 255 0 0.000000
387978.503000 3551514.346001 -0.863001 58 255 0 0.000000
387979.457000 3551515.730003 0.676001 118 255 0 0.000000
387978.440000 3551514.206001 -1.712999 25 255 0 0.000000
387979.417000 3551515.530998 -0.289000 80 255 0 0.000000
387978.367000 3551514.515999 -1.704000 25 255 0 0.000000
387978.295000 3551514.816002 -1.708000 25 255 0 0.000000
387978.222000 3551515.172997 -1.610001 29 255 0 0.000000
387980.758000 3551511.838997 3.063000 210 255 0 0.000000
387980.688000 3551512.108002 2.990999 207 255 0 0.000000
387979.602000 3551512.706001 4.372999 255 248 0 0.000000
387981.733000 3551512.035004 1.914000 166 255 0 0.000000
387980.568000 3551512.874001 3.722000 236 255 0 0.000000
387979.525000 3551513.161003 4.622000 255 238 0 0.000000
387981.576000 3551512.912003 2.856001 202 255 0 0.000000
387980.505000 3551513.092003 3.610001 231 255 0 0.000000
387979.466000 3551513.362000 4.493000 255 243 0 0.000000
387981.511000 3551513.125999 2.714001 197 255 0 0.000000
387980.493000 3551512.752998 2.572001 191 255 0 0.000000
387979.392000 3551513.786003 4.707001 255 235 0 0.000000
387982.557000 3551513.190002 1.825001 163 255 0 0.000000
387981.433000 3551513.440002 2.738001 198 255 0 0.000000
387980.345000 3551513.866997 3.917999 243 255 0 0.000000
387979.343000 3551513.733002 4.153000 252 255 0 0.000000
387983.434000 3551514.124001 2.424000 186 255 0 0.000000
387982.490000 3551513.426003 1.714001 158 255 0 0.000000
387981.359000 3551513.727997 2.725000 197 255 0 0.000000
387980.258000 3551514.347000 4.242001 255 253 0 0.000000
387979.283000 3551513.880997 3.926001 244 255 0 0.000000
387982.408000 3551513.726997 1.709999 158 255 0 0.000000
387981.356000 3551513.483002 1.791000 161 255 0 0.000000
387980.185000 3551514.664001 4.290001 255 251 0 0.000000
387979.214000 3551514.238998 4.035999 248 255 0 0.000000
387983.437000 3551513.985001 1.117001 135 255 0 0.000000
387982.340000 3551513.961998 1.593000 154 255 0 0.000000
387981.250000 3551514.001999 2.172001 176 255 0 0.000000
387980.125000 3551514.845001 4.115999 252 255 0 0.000000
387979.154000 3551514.370003 3.775000 238 255 0 0.000000
387981.130000 3551514.632004 2.768000 199 255 0 0.000000
387980.124000 3551514.348000 2.764000 198 255 0 0.000000
387979.086000 3551514.705002 3.863001 241 255 0 0.000000
387983.431000 3551513.872002 -0.181000 84 255 0 0.000000
387981.056000 3551514.922997 2.775999 199 255 0 0.000000
387980.069000 3551514.445999 2.429001 186 255 0 0.000000
387979.054000 3551514.105003 2.329000 182 255 0 0.000000
387982.957000 3551515.882004 2.986000 207 255 0 0.000000
387982.200000 3551514.296997 0.580000 114 255 0 0.000000
387981.105000 3551514.257004 1.045000 132 255 0 0.000000
387980.007000 3551514.621002 2.216999 177 255 0 0.000000
387978.983000 3551514.461998 2.437000 186 255 0 0.000000
387982.223000 3551514.009003 -0.514999 71 255 0 0.000000
387981.045000 3551514.428001 0.812000 123 255 0 0.000000
387979.930000 3551514.987000 2.354000 183 255 0 0.000000
387978.921000 3551514.581001 2.132999 174 255 0 0.000000
387983.291000 3551514.267998 -1.172001 46 255 0 0.000000
387982.148000 3551514.277000 -0.583000 69 255 0 0.000000
387980.856000 3551515.626999 2.495001 188 255 0 0.000000
387979.898000 3551514.781998 1.454000 148 255 0 0.000000
387978.869000 3551514.355003 1.200001 138 255 0 0.000000
387982.091000 3551514.430000 -0.878000 57 255 0 0.000000
387980.980000 3551514.311996 -0.527000 71 255 0 0.000000
387979.836000 3551514.933998 1.188000 137 255 0 0.000000
387978.801000 3551514.557999 1.024000 131 255 0 0.000000
387982.051000 3551514.496002 -1.343000 39 255 0 0.000000
387980.834000 3551515.170998 0.533001 112 255 0 0.000000
387979.770000 3551515.146004 1.035999 132 255 0 0.000000
387978.733000 3551514.837997 0.999001 130 255 0 0.000000
387981.918000 3551515.093002 -0.764999 62 255 0 0.000000
387980.853000 3551514.672997 -0.997000 53 255 0 0.000000
387979.709000 3551515.280998 0.740000 120 255 0 0.000000
387978.668000 3551514.956001 0.674999 118 255 0 0.000000
387977.578000 3551513.446999 -1.587000 29 255 0 0.000000
387981.950000 3551514.733002 -2.075001 11 255 0 0.000000
387979.635000 3551515.622002 0.843000 124 255 0 0.000000
387978.620000 3551514.098999 -1.520000 32 255 0 0.000000
387977.508000 3551513.730003 -1.634001 28 255 0 0.000000
387978.550000 3551514.231003 -1.854000 20 255 0 0.000000
387978.479000 3551514.390999 -2.152000 8 255 0 0.000000
387979.488000 3551515.378998 -1.384001 38 255 0 0.000000
387978.405000 3551514.906998 -1.725000 24 255 0 0.000000
387978.331000 3551515.198997 -1.764000 23 255 0 0.000000
387979.901000 3551511.723000 3.152000 213 255 0 0.000000
387979.791000 3551512.700996 4.205000 255 255 0 0.000000
387982.839000 3551513.155998 3.101999 212 255 0 0.000000
387980.816000 3551512.328003 2.691000 196 255 0 0.000000
387979.723000 3551513.009003 4.225000 255 254 0 0.000000
387982.745000 3551513.530998 3.232000 217 255 0 0.000000
387981.840000 3551512.442001 1.915001 166 255 0 0.000000
387980.750000 3551512.555000 2.570000 191 255 0 0.000000
387979.622000 3551513.949997 5.266001 255 213 0 0.000000
387982.678000 3551513.757004 3.108999 212 255 0 0.000000
387981.755000 3551512.794998 1.983999 169 255 0 0.000000
387980.601000 3551513.640999 3.849001 241 255 0 0.000000
387979.575000 3551513.850998 4.639999 255 237 0 0.000000
387982.721000 3551513.396004 1.992001 169 255 0 0.000000
387981.617000 3551513.528999 2.705000 196 255 0 0.000000
387980.561000 3551513.607002 3.306999 220 255 0 0.000000
387979.511000 3551514.122002 4.615000 255 239 0 0.000000
387982.657000 3551513.611000 1.847000 163 255 0 0.000000
387981.620000 3551513.254997 1.737000 159 255 0 0.000000
387980.435000 3551514.487999 4.299000 255 251 0 0.000000
387979.445000 3551514.422997 4.646999 255 237 0 0.000000
387978.465000 3551512.865997 2.539000 190 255 0 0.000000
