387990.205000 3551516.983002 -3.952999 0 193 61 0.000000
387991.959000 3551516.805000 -1.480000 34 255 0 0.000000
387992.862000 3551516.556999 -1.483000 34 255 0 0.000000
387990.629000 3551516.810997 -2.495001 0 249 5 0.000000
387991.844000 3551516.583000 -1.641001 28 255 0 0.000000
387992.966000 3551516.373001 -0.906000 56 255 0 0.000000
387993.746000 3551516.108002 -1.288000 41 255 0 0.000000
387991.802000 3551516.371002 -1.572001 30 255 0 0.000000
387992.802000 3551516.140999 -1.261000 42 255 0 0.000000
387993.218000 3551515.779999 -3.039000 0 228 26 0.000000
387990.489000 3551516.744003 0.100000 95 255 0 0.000000
387990.660000 3551516.391998 -2.013000 13 255 0 0.000000
387992.181000 3551516.237000 -0.172001 85 255 0 0.000000
387992.753000 3551515.930000 -1.212999 44 255 0 0.000000
387993.799999 3551515.728996 -0.627001 67 255 0 0.000000
387990.313000 3551516.521004 -0.205999 83 255 0 0.000000
387991.031000 3551516.246002 -0.740000 62 255 0 0.000000
387992.046000 3551516.013000 -0.400999 76 255 0 0.000000
387992.890000 3551515.763000 -0.530001 71 255 0 0.000000
387993.645000 3551515.490997 -0.974001 53 255 0 0.000000
387990.167000 3551516.293999 -0.421000 75 255 0 0.000000
387990.928000 3551516.021004 -0.850000 59 255 0 0.000000
387991.954000 3551515.791000 -0.487000 73 255 0 0.000000
387992.644000 3551515.500000 -1.150000 47 255 0 0.000000
387993.582001 3551515.274002 -0.973000 53 255 0 0.000000
387994.226000 3551514.946999 -1.937000 16 255 0 0.000000
387990.834000 3551516.205002 1.549999 151 255 0 0.000000
387990.734000 3551515.780998 -1.219000 44 255 0 0.000000
387991.862000 3551515.573997 -0.580999 69 255 0 0.000000
387992.678000 3551515.313004 -0.820999 59 255 0 0.000000
387993.523001 3551515.061996 -0.962999 54 255 0 0.000000
387990.975000 3551516.041000 2.091999 172 255 0 0.000000
387991.369000 3551515.716003 0.788000 122 255 0 0.000000
387990.708000 3551515.086998 -3.948999 0 193 61 0.000000
387991.818000 3551514.865997 -3.485001 0 211 43 0.000000
387993.660999 3551514.917000 -0.233999 83 255 0 0.000000
387994.466000 3551514.657997 -0.481001 73 255 0 0.000000
387990.911000 3551515.844002 2.086000 172 255 0 0.000000
387991.738000 3551515.151001 -0.566999 69 255 0 0.000000
387993.466999 3551514.661003 -0.709999 64 255 0 0.000000
387994.237000 3551514.377998 -1.145000 47 255 0 0.000000
387990.909000 3551515.658997 2.242001 178 255 0 0.000000
387991.580000 3551515.389999 1.743000 159 255 0 0.000000
387991.502000 3551514.889999 -1.091999 49 255 0 0.000000
387992.596000 3551514.709999 -0.462000 74 255 0 0.000000
387993.391001 3551514.442001 -0.760000 62 255 0 0.000000
387990.892000 3551515.468002 2.364000 183 255 0 0.000000
387991.357000 3551515.142998 1.295000 142 255 0 0.000000
387991.655000 3551514.735001 -0.422001 75 255 0 0.000000
387993.549999 3551514.314003 0.038000 93 255 0 0.000000
387990.556000 3551515.205002 1.645000 155 255 0 0.000000
387991.359000 3551514.958000 1.476999 149 255 0 0.000000
387992.387000 3551514.776001 1.988001 169 255 0 0.000000
387991.883000 3551514.067001 -2.372000 0 255 0 0.000000
387993.535000 3551514.124001 0.201000 99 255 0 0.000000
387993.472000 3551513.447998 -3.379000 0 215 39 0.000000
387990.229000 3551514.936996 0.955000 128 255 0 0.000000
387991.244000 3551514.740997 1.330000 143 255 0 0.000000
387992.101000 3551514.502998 1.311001 142 255 0 0.000000
387992.950000 3551514.277000 1.312000 142 255 0 0.000000
387993.565001 3551513.957001 0.528000 112 255 0 0.000000
387993.409000 3551513.221001 -3.364000 0 216 38 0.000000
387990.974000 3551514.948997 3.063000 210 255 0 0.000000
387991.373000 3551514.598000 1.865999 164 255 0 0.000000
387992.010000 3551514.289001 1.223000 139 255 0 0.000000
387993.474001 3551513.736000 0.421000 108 255 0 0.000000
387993.466999 3551513.056999 -2.889999 0 234 20 0.000000
387990.959000 3551514.768997 3.184999 215 255 0 0.000000
387991.700000 3551514.522003 2.941999 206 255 0 0.000000
387992.221000 3551514.184998 2.037001 171 255 0 0.000000
387992.888000 3551513.896004 1.507000 150 255 0 0.000000
387993.476999 3551513.557999 0.650999 117 255 0 0.000000
387993.450001 3551512.856003 -2.698000 0 242 12 0.000000
387990.901000 3551514.571999 3.198999 216 255 0 0.000000
387991.628000 3551514.319000 2.919001 204 255 0 0.000000
387992.230000 3551514.008003 2.253000 179 255 0 0.000000
387993.285000 3551513.282997 0.202999 99 255 0 0.000000
387993.364000 3551512.613998 -2.767000 0 239 15 0.000000
387991.666000 3551514.158997 3.191000 216 255 0 0.000000
387992.252000 3551513.843002 2.500000 189 255 0 0.000000
387992.520000 3551513.375999 0.737000 120 255 0 0.000000
387993.379999 3551513.152000 0.749001 121 255 0 0.000000
387993.306999 3551512.391998 -2.728001 0 240 14 0.000000
387989.576000 3551513.789001 0.143999 97 255 0 0.000000
387991.477000 3551513.914001 2.848000 202 255 0 0.000000
387992.244000 3551513.663002 2.660000 195 255 0 0.000000
387992.588000 3551513.224998 1.156000 136 255 0 0.000000
387992.763000 3551512.650002 -1.145000 47 255 0 0.000000
387989.498000 3551513.579002 0.115999 96 255 0 0.000000
387991.433000 3551513.730003 2.893999 204 255 0 0.000000
387991.930000 3551513.362000 1.923000 166 255 0 0.000000
387992.760000 3551512.469002 -0.934000 55 255 0 0.000000
387989.522000 3551513.392998 0.357000 105 255 0 0.000000
387991.270000 3551513.488998 2.629000 193 255 0 0.000000
387991.870000 3551513.156998 1.936001 166 255 0 0.000000
387989.472000 3551513.188004 0.405001 107 255 0 0.000000
387991.271000 3551513.316002 2.801001 200 255 0 0.000000
387991.922000 3551513.007004 2.267000 180 255 0 0.000000
387991.789000 3551512.294998 -0.729000 63 255 0 0.000000
387991.236000 3551513.130997 2.879999 203 255 0 0.000000
387990.616000 3551512.220001 -1.290001 41 255 0 0.000000
387990.851000 3551512.788002 2.031000 170 255 0 0.000000
387990.852000 3551512.619003 2.204000 177 255 0 0.000000
387990.890000 3551512.463997 2.475000 187 255 0 0.000000
387990.903000 3551512.290001 2.694000 196 255 0 0.000000
387990.076000 3551517.561996 -2.943001 0 232 22 0.000000
387990.625000 3551517.264999 -4.219999 0 183 71 0.000000
387992.266000 3551516.857002 -1.813000 21 255 0 0.000000
387991.114000 3551516.877998 -2.312000 2 255 0 0.000000
387992.205000 3551516.640999 -1.809999 21 255 0 0.000000
387993.063000 3551516.385002 -1.993000 14 255 0 0.000000
387991.289000 3551516.690002 -1.584999 30 255 0 0.000000
387992.146000 3551516.424004 -1.799000 21 255 0 0.000000
387993.354000 3551516.240997 -0.733000 63 255 0 0.000000
387993.930000 3551515.931000 -1.896999 17 255 0 0.000000
387991.188000 3551516.469002 -1.698999 26 255 0 0.000000
387992.689000 3551516.320000 0.186001 98 255 0 0.000000
387993.278999 3551516.026001 -0.784000 61 255 0 0.000000
387993.871000 3551515.713997 -1.886999 18 255 0 0.000000
387990.680000 3551516.565002 -0.319000 79 255 0 0.000000
387991.216000 3551516.261002 -1.419001 36 255 0 0.000000
387992.585000 3551516.099998 0.048000 93 255 0 0.000000
387993.103001 3551515.781998 -1.187000 45 255 0 0.000000
387993.809000 3551515.491997 -1.886000 18 255 0 0.000000
387990.591000 3551516.349998 -0.395000 76 255 0 0.000000
387991.143000 3551516.043999 -1.443001 35 255 0 0.000000
387992.426000 3551515.872002 -0.271999 81 255 0 0.000000
387993.033001 3551515.567001 -1.218000 44 255 0 0.000000
387993.749001 3551515.275002 -1.878000 18 255 0 0.000000
387990.412000 3551516.120003 -0.712999 64 255 0 0.000000
387990.996000 3551515.810997 -1.694000 26 255 0 0.000000
387992.285000 3551515.643997 -0.532000 71 255 0 0.000000
387992.952000 3551515.347000 -1.284000 41 255 0 0.000000
387994.090000 3551515.192001 -0.343000 78 255 0 0.000000
387991.293000 3551516.083000 1.896000 165 255 0 0.000000
387991.385000 3551515.693001 -0.346001 78 255 0 0.000000
387992.040000 3551515.385002 -1.117001 48 255 0 0.000000
387993.007999 3551515.167999 -0.878000 57 255 0 0.000000
387994.125000 3551515.016998 0.016001 92 255 0 0.000000
387991.334000 3551515.485001 -0.312000 80 255 0 0.000000
387991.950000 3551515.164001 -1.202999 44 255 0 0.000000
387992.921000 3551514.946999 -0.959999 54 255 0 0.000000
387993.990999 3551514.780998 -0.263000 81 255 0 0.000000
387990.427000 3551515.931000 2.198000 177 255 0 0.000000
387991.067000 3551515.660004 1.610001 154 255 0 0.000000
387990.780000 3551515.146004 -1.749001 23 255 0 0.000000
387992.904000 3551514.742996 -0.802000 60 255 0 0.000000
387993.825001 3551514.526001 -0.655001 66 255 0 0.000000
387991.043000 3551515.468002 1.712000 158 255 0 0.000000
387991.247000 3551515.069000 -0.190001 84 255 0 0.000000
387993.056999 3551514.607002 -0.063999 88 255 0 0.000000
387990.728000 3551515.199997 1.027000 131 255 0 0.000000
387991.147000 3551514.842003 -0.290001 80 255 0 0.000000
387992.621000 3551514.787003 1.511999 150 255 0 0.000000
387993.143999 3551514.448997 0.445000 109 255 0 0.000000
387993.636000 3551514.068001 -0.896000 56 255 0 0.000000
387990.964000 3551515.079002 1.830999 163 255 0 0.000000
387991.483000 3551514.754997 0.861000 125 255 0 0.000000
387992.575000 3551514.595001 1.549999 151 255 0 0.000000
387993.052000 3551514.233002 0.333000 104 255 0 0.000000
387993.656000 3551513.893997 -0.601999 68 255 0 0.000000
387990.884000 3551514.870003 1.785999 161 255 0 0.000000
387991.812000 3551514.667999 1.992001 169 255 0 0.000000
387992.660000 3551514.442001 2.007000 169 255 0 0.000000
387992.608000 3551513.863998 -0.948999 55 255 0 0.000000
387993.823000 3551513.783997 0.240999 100 255 0 0.000000
387989.613000 3551514.809998 0.943001 128 255 0 0.000000
387991.234000 3551514.787003 2.886000 204 255 0 0.000000
387991.904000 3551514.518997 2.430000 186 255 0 0.000000
387992.621000 3551514.250999 2.068001 171 255 0 0.000000
387992.541000 3551513.648003 -0.955999 54 255 0 0.000000
387993.847000 3551513.616997 0.547001 112 255 0 0.000000
387991.792000 3551514.304001 2.281000 180 255 0 0.000000
387992.568000 3551514.055000 2.090000 172 255 0 0.000000
387992.315000 3551513.359001 -1.495001 33 255 0 0.000000
387993.818001 3551513.425003 0.660999 117 255 0 0.000000
387991.260000 3551514.441002 3.281000 219 255 0 0.000000
387991.864000 3551514.149002 2.664000 195 255 0 0.000000
387992.496000 3551513.846001 2.059999 171 255 0 0.000000
387993.056000 3551513.505997 1.169001 137 255 0 0.000000
387993.841999 3551513.258003 0.966999 129 255 0 0.000000
387991.280000 3551514.275002 3.495001 227 255 0 0.000000
387991.597000 3551513.875999 2.084000 172 255 0 0.000000
387992.524000 3551513.683998 2.327000 182 255 0 0.000000
387992.251000 3551512.945999 -1.271999 42 255 0 0.000000
387993.827000 3551513.078003 1.128000 135 255 0 0.000000
387991.235000 3551514.093002 3.531000 228 255 0 0.000000
387991.540000 3551513.682999 2.091999 172 255 0 0.000000
387992.358000 3551513.445000 2.004999 169 255 0 0.000000
387992.859000 3551513.064003 0.917999 127 255 0 0.000000
387993.068001 3551512.485001 -1.351999 39 255 0 0.000000
387991.461000 3551513.472000 2.051001 171 255 0 0.000000
387992.333000 3551513.255997 2.120001 174 255 0 0.000000
387992.855000 3551512.883003 1.114000 135 255 0 0.000000
387992.866000 3551512.181999 -1.826000 20 255 0 0.000000
387991.579000 3551513.345001 2.552000 190 255 0 0.000000
387991.031000 3551512.472000 -1.582001 30 255 0 0.000000
387992.868000 3551512.714996 1.355000 144 255 0 0.000000
387992.808000 3551511.961998 -1.801001 21 255 0 0.000000
387989.815000 3551513.027000 0.351999 105 255 0 0.000000
387991.517000 3551513.140999 2.558001 191 255 0 0.000000
387992.302000 3551512.232002 -0.252001 82 255 0 0.000000
387990.271000 3551513.024002 1.698000 157 255 0 0.000000
387991.309000 3551512.876999 2.160999 175 255 0 0.000000
387989.752000 3551512.637001 0.540001 112 255 0 0.000000
387991.175000 3551512.648003 1.959999 168 255 0 0.000000
387991.241000 3551512.500999 2.322001 181 255 0 0.000000
387991.257000 3551512.337997 2.539000 190 255 0 0.000000
387990.154000 3551517.387001 -3.937000 0 193 61 0.000000
387992.877000 3551516.963997 -1.274000 42 255 0 0.000000
387990.097000 3551517.152000 -3.910999 0 195 59 0.000000
387992.768000 3551516.737999 -1.441999 35 255 0 0.000000
387989.994000 3551516.925003 -4.025000 0 190 64 0.000000
387991.711000 3551516.764999 -1.708000 25 255 0 0.000000
387992.661000 3551516.521004 -1.606001 29 255 0 0.000000
387990.981000 3551516.819000 -0.944000 55 255 0 0.000000
387991.687000 3551516.549004 -1.586000 29 255 0 0.000000
387992.673000 3551516.313004 -1.354000 39 255 0 0.000000
387993.802000 3551516.130997 -0.490000 72 255 0 0.000000
387991.477000 3551516.306999 -2.051001 11 255 0 0.000000
387992.432000 3551516.060997 -1.965000 15 255 0 0.000000
387993.695000 3551515.910004 -0.671000 65 255 0 0.000000
387990.293000 3551516.680000 0.025999 92 255 0 0.000000
387990.789000 3551516.382004 -1.143999 47 255 0 0.000000
387991.475000 3551516.098999 -1.862000 19 255 0 0.000000
387992.893000 3551515.960999 -0.204000 83 255 0 0.000000
387993.535000 3551515.670998 -1.044001 51 255 0 0.000000
387989.998000 3551516.433998 -0.597000 68 255 0 0.000000
387990.922000 3551516.195000 -0.576000 69 255 0 0.000000
387991.920000 3551515.980003 -0.284000 80 255 0 0.000000
387992.739000 3551515.723999 -0.520000 71 255 0 0.000000
387993.386999 3551515.428001 -1.360001 38 255 0 0.000000
387993.709999 3551515.001999 -3.625999 0 206 48 0.000000
387990.679000 3551515.948997 -1.094999 49 255 0 0.000000
387991.884000 3551515.775002 -0.207001 83 255 0 0.000000
387992.624000 3551515.499001 -0.701000 64 255 0 0.000000
387993.174000 3551515.165001 -1.917000 17 255 0 0.000000
387994.087000 3551514.934998 -1.875000 18 255 0 0.000000
387989.774000 3551515.990997 -0.858000 58 255 0 0.000000
387991.599000 3551515.935997 1.705000 157 255 0 0.000000
387991.702000 3551515.536003 -0.583000 69 255 0 0.000000
387992.483000 3551515.264000 -0.969999 53 255 0 0.000000
387993.556000 3551515.093002 -0.315001 79 255 0 0.000000
387994.558001 3551514.920998 0.226000 100 255 0 0.000000
387990.789000 3551515.980003 1.999001 169 255 0 0.000000
387991.229000 3551515.667000 0.820000 123 255 0 0.000000
387991.458000 3551515.278999 -1.141001 47 255 0 0.000000
387992.203000 3551514.985001 -1.691000 26 255 0 0.000000
387993.271000 3551514.804001 -1.125999 47 255 0 0.000000
387994.489000 3551514.709999 0.176001 98 255 0 0.000000
387990.823000 3551515.802002 2.245001 178 255 0 0.000000
387991.424000 3551515.523003 1.542000 151 255 0 0.000000
387991.381000 3551515.058998 -1.181999 45 255 0 0.000000
387992.685000 3551514.939003 0.097000 95 255 0 0.000000
387994.386000 3551514.483002 0.004000 91 255 0 0.000000
387990.788000 3551515.605003 2.311001 181 255 0 0.000000
387991.403000 3551515.327003 1.653000 156 255 0 0.000000
387991.521000 3551514.896004 -0.563000 70 255 0 0.000000
387992.748000 3551514.766998 0.504999 111 255 0 0.000000
387993.257999 3551514.411003 -0.733000 63 255 0 0.000000
387994.239000 3551514.230003 -0.337000 78 255 0 0.000000
387991.255000 3551515.103996 1.407000 146 255 0 0.000000
387991.179000 3551514.598000 -1.405001 37 255 0 0.000000
387992.689000 3551514.560997 0.507000 111 255 0 0.000000
387993.224001 3551514.208000 -0.641001 67 255 0 0.000000
387994.158001 3551514.009003 -0.424000 75 255 0 0.000000
387990.351000 3551515.133003 1.485001 149 255 0 0.000000
387990.902000 3551514.820000 0.594999 115 255 0 0.000000
387992.123000 3551514.703003 1.608000 154 255 0 0.000000
387992.753000 3551514.399002 0.903000 127 255 0 0.000000
387993.405001 3551514.098000 0.208000 100 255 0 0.000000
387993.552000 3551513.532997 -2.514999 0 249 5 0.000000
387992.163000 3551514.536003 1.906000 166 255 0 0.000000
387993.360001 3551513.896004 0.259001 101 255 0 0.000000
387993.284000 3551513.206001 -3.296000 0 219 35 0.000000
387991.584000 3551514.656998 2.816999 201 255 0 0.000000
387991.891000 3551514.262001 1.278000 141 255 0 0.000000
387992.904000 3551514.097000 1.767000 160 255 0 0.000000
387993.282000 3551513.678001 0.195000 99 255 0 0.000000
387993.353001 3551513.044998 -2.790001 0 238 16 0.000000
387990.899000 3551514.733002 3.374001 222 255 0 0.000000
387991.947000 3551514.096001 1.625999 154 255 0 0.000000
387992.900000 3551513.916000 1.948000 167 255 0 0.000000
387993.256001 3551513.480003 0.319000 103 255 0 0.000000
387993.282000 3551512.809998 -2.812000 0 237 17 0.000000
387990.794000 3551514.526001 3.254999 218 255 0 0.000000
387991.685000 3551514.335999 3.423000 225 255 0 0.000000
387992.061000 3551513.960999 2.136000 174 255 0 0.000000
387992.625000 3551513.621002 1.263000 140 255 0 0.000000
387993.142000 3551513.242996 0.136999 97 255 0 0.000000
387993.316999 3551512.638000 -2.438000 0 252 2 0.000000
387991.474000 3551514.084999 3.011999 208 255 0 0.000000
387992.144000 3551513.814003 2.559999 191 255 0 0.000000
387992.598000 3551513.427002 1.374001 145 255 0 0.000000
387992.594000 3551512.779999 -1.514000 32 255 0 0.000000
387993.167000 3551512.358002 -2.753000 0 240 14 0.000000
387989.475000 3551513.745003 0.232000 100 255 0 0.000000
387991.337000 3551513.865997 2.799999 200 255 0 0.000000
387992.153000 3551513.650002 2.750999 198 255 0 0.000000
387992.603000 3551513.258003 1.573000 153 255 0 0.000000
387992.659000 3551512.633003 -1.084999 50 255 0 0.000000
387991.269000 3551513.667000 2.780001 199 255 0 0.000000
387992.146000 3551513.475998 2.903000 204 255 0 0.000000
387992.296000 3551512.935997 0.806999 123 255 0 0.000000
387992.681000 3551512.459000 -0.797001 60 255 0 0.000000
387989.488000 3551513.367996 0.601000 115 255 0 0.000000
387991.124000 3551513.431000 2.558001 191 255 0 0.000000
387991.780000 3551513.139000 2.031000 170 255 0 0.000000
387991.328000 3551512.269997 -1.987000 14 255 0 0.000000
387989.355000 3551513.132004 0.438000 109 255 0 0.000000
387991.185000 3551513.282997 2.889999 204 255 0 0.000000
387991.793000 3551512.970001 2.240999 178 255 0 0.000000
387990.072000 3551512.638000 0.103001 95 255 0 0.000000
387990.481000 3551512.176003 -1.308001 41 255 0 0.000000
387990.720000 3551512.737999 1.988001 169 255 0 0.000000
387990.825000 3551512.611000 2.433001 186 255 0 0.000000
387990.594000 3551517.431000 -4.158001 0 185 69 0.000000
387990.527000 3551517.198997 -4.171000 0 184 70 0.000000
387991.071000 3551517.036003 -2.320000 1 255 0 0.000000
387992.015000 3551516.796997 -2.298000 2 255 0 0.000000
387993.070999 3551516.573997 -1.850000 20 255 0 0.000000
387992.198000 3551516.610001 -1.497999 33 255 0 0.000000
387993.362000 3551516.418999 -0.596001 68 255 0 0.000000
387993.677000 3551516.064003 -2.785999 0 238 16 0.000000
387990.924000 3551516.585999 -2.389999 0 254 0 0.000000
387992.130000 3551516.392998 -1.525000 32 255 0 0.000000
387993.202000 3551516.188004 -0.962999 54 255 0 0.000000
387993.853001 3551515.903999 -1.868999 19 255 0 0.000000
387991.089000 3551516.401001 -1.712000 25 255 0 0.000000
387992.565000 3551516.273003 0.077000 94 255 0 0.000000
387993.157000 3551515.978996 -0.922001 56 255 0 0.000000
387993.798000 3551515.686996 -1.858999 19 255 0 0.000000
387990.666000 3551516.507004 -0.101000 88 255 0 0.000000
387991.160000 3551516.208000 -1.318001 40 255 0 0.000000
387992.536000 3551516.072998 0.167999 98 255 0 0.000000
387993.003000 3551515.742996 -1.259001 42 255 0 0.000000
387993.858000 3551515.505997 -1.405001 37 255 0 0.000000
387990.479000 3551516.278000 -0.457001 74 255 0 0.000000
387990.934000 3551515.960999 -1.809000 21 255 0 0.000000
387992.364000 3551515.841003 -0.202999 83 255 0 0.000000
387992.943000 3551515.528000 -1.267000 42 255 0 0.000000
387994.080000 3551515.379997 -0.337999 78 255 0 0.000000
387990.266000 3551516.035004 -0.875000 57 255 0 0.000000
387991.344000 3551515.835999 -0.408001 76 255 0 0.000000
387992.187000 3551515.597000 -0.580000 69 255 0 0.000000
387992.862000 3551515.301003 -1.339001 39 255 0 0.000000
387994.069000 3551515.181000 -0.162001 85 255 0 0.000000
387991.213000 3551516.014000 1.893999 165 255 0 0.000000
387991.308000 3551515.630997 -0.337999 78 255 0 0.000000
387992.219000 3551515.408997 -0.287001 80 255 0 0.000000
387992.924000 3551515.124001 -0.917000 56 255 0 0.000000
387993.999001 3551514.967003 -0.209000 83 255 0 0.000000
387991.097000 3551515.801003 1.738001 159 255 0 0.000000
387990.744000 3551515.292000 -1.816999 21 255 0 0.000000
387992.107000 3551515.179001 -0.452999 74 255 0 0.000000
387992.893000 3551514.914001 -0.819000 59 255 0 0.000000
387990.158000 3551515.823997 1.724001 158 255 0 0.000000
387991.030000 3551515.603996 1.708000 158 255 0 0.000000
387990.993000 3551515.157997 -0.912001 56 255 0 0.000000
387991.826000 3551514.907997 -1.155001 47 255 0 0.000000
387992.797000 3551514.694000 -0.952000 54 255 0 0.000000
387993.750000 3551514.496002 -0.716999 64 255 0 0.000000
387990.911000 3551515.385002 1.546000 151 255 0 0.000000
387991.136000 3551514.995003 -0.309999 80 255 0 0.000000
387992.496000 3551514.916000 1.138000 136 255 0 0.000000
387993.070000 3551514.594002 0.180000 98 255 0 0.000000
387993.681000 3551514.274002 -0.750000 62 255 0 0.000000
387990.944000 3551515.208000 1.792000 161 255 0 0.000000
387991.462000 3551514.894997 0.806999 123 255 0 0.000000
387992.523000 3551514.741997 1.403000 146 255 0 0.000000
387993.068001 3551514.407997 0.372000 106 255 0 0.000000
387993.579000 3551514.042000 -0.912001 56 255 0 0.000000
387990.888000 3551515.009003 1.802000 161 255 0 0.000000
387991.685000 3551514.776001 1.620001 154 255 0 0.000000
387992.508000 3551514.555000 1.532000 151 255 0 0.000000
387992.981000 3551514.189003 0.278000 102 255 0 0.000000
387993.594999 3551513.861000 -0.636999 67 255 0 0.000000
387989.674000 3551514.955002 1.118000 135 255 0 0.000000
387990.850000 3551514.809998 1.858999 163 255 0 0.000000
387991.781000 3551514.620003 2.066999 171 255 0 0.000000
387992.611000 3551514.406998 2.031000 170 255 0 0.000000
387992.553000 3551513.821999 -0.954000 54 255 0 0.000000
387993.787001 3551513.761002 0.281000 102 255 0 0.000000
387991.188000 3551514.727997 2.919001 204 255 0 0.000000
387991.791000 3551514.444000 2.261000 179 255 0 0.000000
387992.539000 3551514.204002 1.986000 169 255 0 0.000000
387992.446000 3551513.585999 -1.112000 48 255 0 0.000000
387993.808001 3551513.593002 0.563000 113 255 0 0.000000
387991.257000 3551514.577003 3.247999 217 255 0 0.000000
387992.520000 3551514.025002 2.098000 173 255 0 0.000000
387992.283000 3551513.328003 -1.452000 35 255 0 0.000000
387993.764999 3551513.397003 0.612000 115 255 0 0.000000
387991.265000 3551514.399002 3.429001 225 255 0 0.000000
387991.648000 3551514.033997 2.190001 177 255 0 0.000000
387992.456000 3551513.813004 2.086000 172 255 0 0.000000
387992.196000 3551513.086998 -1.523001 32 255 0 0.000000
387993.801001 3551513.230003 0.955000 128 255 0 0.000000
387991.224000 3551514.214996 3.472000 226 255 0 0.000000
387991.543000 3551513.821999 2.056000 171 255 0 0.000000
387992.499000 3551513.661003 2.384001 184 255 0 0.000000
387992.268000 3551512.936996 -1.087000 49 255 0 0.000000
387993.073999 3551512.662003 -1.427000 36 255 0 0.000000
387990.913000 3551513.930000 2.813999 201 255 0 0.000000
387991.464000 3551513.610001 2.004000 169 255 0 0.000000
387992.323000 3551513.406998 2.037001 171 255 0 0.000000
387992.826000 3551513.024002 0.934000 127 255 0 0.000000
387992.946000 3551512.400002 -1.653999 27 255 0 0.000000
387990.878000 3551513.742996 2.879000 203 255 0 0.000000
387991.519000 3551513.456001 2.326000 182 255 0 0.000000
387991.108000 3551512.674004 -1.424000 36 255 0 0.000000
387992.826000 3551512.848000 1.129000 135 255 0 0.000000
387992.806000 3551512.132004 -1.927999 17 255 0 0.000000
387990.299000 3551513.348000 1.534000 151 255 0 0.000000
387991.843000 3551512.832001 0.955999 128 255 0 0.000000
387992.832000 3551512.676003 1.337999 143 255 0 0.000000
387992.810000 3551511.948997 -1.691999 26 255 0 0.000000
387990.274000 3551513.158997 1.632999 155 255 0 0.000000
387991.498000 3551513.098999 2.597000 192 255 0 0.000000
387992.165000 3551512.136002 -0.605000 68 255 0 0.000000
387990.205000 3551512.946999 1.622000 154 255 0 0.000000
387991.209000 3551512.792000 1.975000 168 255 0 0.000000
387991.202000 3551512.613998 2.122000 174 255 0 0.000000
387991.188000 3551512.433998 2.253000 179 255 0 0.000000
387991.206000 3551512.272003 2.469000 187 255 0 0.000000
387990.124000 3551517.527000 -4.017000 0 190 64 0.000000
387990.085000 3551517.300003 -3.955999 0 192 62 0.000000
387990.057000 3551517.073997 -3.861000 0 196 58 0.000000
387991.755000 3551516.921997 -1.605000 29 255 0 0.000000
387992.736000 3551516.707001 -1.385000 38 255 0 0.000000
387989.928000 3551516.836998 -4.061001 0 189 65 0.000000
387991.694000 3551516.706001 -1.618000 29 255 0 0.000000
387992.604000 3551516.480003 -1.643999 28 255 0 0.000000
387993.077000 3551516.153999 -3.289000 0 219 35 0.000000
387990.913000 3551516.739998 -1.006001 53 255 0 0.000000
387991.647000 3551516.486000 -1.580999 30 255 0 0.000000
387992.658000 3551516.279999 -1.264999 42 255 0 0.000000
387991.511000 3551516.255997 -1.826000 20 255 0 0.000000
387992.397000 3551516.021004 -1.958000 15 255 0 0.000000
387993.674999 3551515.880997 -0.643999 66 255 0 0.000000
387991.948000 3551516.135002 -0.285000 80 255 0 0.000000
387992.864000 3551515.926003 -0.188999 84 255 0 0.000000
387993.500999 3551515.638000 -1.080000 50 255 0 0.000000
387989.948000 3551516.348000 -0.614000 68 255 0 0.000000
387990.858000 3551516.121002 -0.669001 65 255 0 0.000000
387992.744000 3551515.700996 -0.407000 76 255 0 0.000000
387993.351999 3551515.397003 -1.421000 36 255 0 0.000000
387993.694000 3551514.987999 -3.632999 0 205 49 0.000000
387990.624000 3551515.874001 -1.172001 46 255 0 0.000000
387991.807000 3551515.709999 -0.375999 77 255 0 0.000000
387992.602000 3551515.467003 -0.698000 65 255 0 0.000000
387993.541000 3551515.259003 -0.531000 71 255 0 0.000000
387994.075001 3551514.920998 -1.879000 18 255 0 0.000000
387990.785000 3551516.094002 1.924999 166 255 0 0.000000
387991.552000 3551515.862999 1.639999 155 255 0 0.000000
387992.487000 3551515.234001 -0.885000 57 255 0 0.000000
387993.542000 3551515.060997 -0.323999 79 255 0 0.000000
387994.552000 3551514.904999 0.232000 100 255 0 0.000000
387990.821000 3551515.914001 2.167999 175 255 0 0.000000
387991.221000 3551515.599998 0.860001 124 255 0 0.000000
387991.410000 3551515.208000 -1.233999 44 255 0 0.000000
387992.190000 3551514.946999 -1.676001 26 255 0 0.000000
387993.316000 3551514.791000 -0.936001 55 255 0 0.000000
387994.493999 3551514.696999 0.215000 100 255 0 0.000000
387990.812000 3551515.723000 2.294001 180 255 0 0.000000
387991.463000 3551515.464996 1.707001 157 255 0 0.000000
387991.568000 3551515.047997 -0.568001 69 255 0 0.000000
387992.664000 3551514.894997 0.076000 94 255 0 0.000000
387993.313999 3551514.592003 -0.732000 63 255 0 0.000000
387994.385000 3551514.460999 0.003000 91 255 0 0.000000
387990.778000 3551515.533997 2.346001 183 255 0 0.000000
387991.260000 3551515.231003 1.290001 142 255 0 0.000000
387991.481000 3551514.832001 -0.662001 65 255 0 0.000000
387992.691000 3551514.720001 0.343000 105 255 0 0.000000
387993.263000 3551514.387001 -0.721001 63 255 0 0.000000
387994.247000 3551514.221001 -0.325001 79 255 0 0.000000
387990.470000 3551515.278999 1.686001 157 255 0 0.000000
387991.243000 3551515.041000 1.398001 145 255 0 0.000000
387991.266000 3551514.570000 -1.129999 47 255 0 0.000000
387992.689000 3551514.532997 0.521000 112 255 0 0.000000
387993.323000 3551514.222000 -0.304001 80 255 0 0.000000
387994.167999 3551513.998001 -0.415001 75 255 0 0.000000
387990.307000 3551515.047997 1.417000 146 255 0 0.000000
387990.882000 3551514.746002 0.556000 113 255 0 0.000000
387992.160000 3551514.663002 1.728001 159 255 0 0.000000
387992.757000 3551514.366997 0.924999 127 255 0 0.000000
387993.561001 3551513.512001 -2.528000 0 249 5 0.000000
387991.343000 3551514.702003 1.993000 169 255 0 0.000000
387992.022000 3551514.440002 1.480000 149 255 0 0.000000
387992.776000 3551514.197998 1.165001 136 255 0 0.000000
387993.368000 3551513.869003 0.247000 101 255 0 0.000000
387993.344999 3551513.210999 -3.129999 0 225 29 0.000000
387990.870000 3551514.831001 3.170000 214 255 0 0.000000
387991.586000 3551514.589996 2.825001 201 255 0 0.000000
387991.887000 3551514.198997 1.254000 140 255 0 0.000000
387992.898000 3551514.056000 1.742001 159 255 0 0.000000
387993.323000 3551513.654999 0.299000 103 255 0 0.000000
387993.417000 3551513.042999 -2.617001 0 245 9 0.000000
387989.714000 3551514.314003 0.351999 105 255 0 0.000000
387991.647000 3551514.438004 3.143999 213 255 0 0.000000
387992.092000 3551514.098999 2.024000 170 255 0 0.000000
387992.907000 3551513.888000 1.941999 167 255 0 0.000000
387993.264999 3551513.450996 0.287001 103 255 0 0.000000
387993.306000 3551512.793999 -2.813999 0 237 17 0.000000
387991.580000 3551514.241997 3.111000 212 255 0 0.000000
387992.105000 3551513.927002 2.226000 177 255 0 0.000000
387992.632000 3551513.591003 1.245001 139 255 0 0.000000
387993.334000 3551512.616997 -2.476000 0 250 4 0.000000
387989.520000 3551513.867996 0.173000 98 255 0 0.000000
387991.449000 3551514.015999 2.910000 204 255 0 0.000000
387992.178000 3551513.776001 2.608999 192 255 0 0.000000
387992.611000 3551513.398003 1.365999 145 255 0 0.000000
387992.718000 3551512.802002 -1.184000 45 255 0 0.000000
387993.198999 3551512.342003 -2.752001 0 240 14 0.000000
387989.444000 3551513.654999 0.138000 97 255 0 0.000000
387991.388000 3551513.822998 2.898001 204 255 0 0.000000
387992.193000 3551513.613998 2.811001 201 255 0 0.000000
387992.370000 3551513.112000 0.783001 121 255 0 0.000000
387992.700000 3551512.611000 -1.047001 50 255 0 0.000000
387989.480000 3551513.473999 0.389000 106 255 0 0.000000
387991.407000 3551513.653000 3.105000 212 255 0 0.000000
387992.320000 3551512.903999 0.816999 123 255 0 0.000000
387989.431000 3551513.266998 0.424999 108 255 0 0.000000
387991.186000 3551513.390999 2.666000 195 255 0 0.000000
387991.839000 3551513.107002 2.122000 174 255 0 0.000000
387989.354000 3551513.051003 0.393000 106 255 0 0.000000
387991.193000 3551513.221001 2.841999 201 255 0 0.000000
387991.543000 3551512.793999 1.441999 148 255 0 0.000000
387990.761000 3551512.856003 1.854000 163 255 0 0.000000
387990.813000 3551512.706001 2.146999 174 255 0 0.000000
387990.865000 3551512.552002 2.445000 186 255 0 0.000000
387990.852000 3551512.372002 2.572001 191 255 0 0.000000
387990.033000 3551517.616997 -2.665001 0 243 11 0.000000
387990.493000 3551517.346001 -4.236000 0 182 72 0.000000
387990.665000 3551516.791000 -6.759998 0 84 170 0.000000
387992.104000 3551516.760002 -1.825001 20 255 0 0.000000
387990.906000 3551516.731003 -2.462999 0 251 3 0.000000
387993.113001 3551516.357002 -1.316999 40 255 0 0.000000
387993.639999 3551516.049004 -2.778000 0 239 15 0.000000
387991.093000 3551516.547997 -1.730000 24 255 0 0.000000
387992.552000 3551516.427002 -0.011000 91 255 0 0.000000
387993.163000 3551516.166000 -0.952999 54 255 0 0.000000
387993.823999 3551515.888000 -1.857000 19 255 0 0.000000
387990.595000 3551516.617996 -0.306999 80 255 0 0.000000
387991.147000 3551516.344002 -1.396999 37 255 0 0.000000
387992.522000 3551516.220001 0.063000 94 255 0 0.000000
387993.091999 3551515.943001 -1.014000 52 255 0 0.000000
387993.761000 3551515.663002 -1.889000 18 255 0 0.000000
387990.581000 3551516.414001 -0.191000 84 255 0 0.000000
387991.351000 3551516.175003 -0.624001 67 255 0 0.000000
387992.431000 3551516.003998 -0.063000 89 255 0 0.000000
387992.975000 3551515.713997 -1.237000 44 255 0 0.000000
387993.882999 3551515.499001 -1.212000 44 255 0 0.000000
387990.365000 3551516.177002 -0.638000 67 255 0 0.000000
387990.933000 3551515.890999 -1.705000 25 255 0 0.000000
387992.275000 3551515.772003 -0.391001 77 255 0 0.000000
387992.896000 3551515.491997 -1.325001 40 255 0 0.000000
387994.052000 3551515.357002 -0.367001 77 255 0 0.000000
387991.255000 3551516.137001 1.968000 168 255 0 0.000000
387991.332000 3551515.767998 -0.351999 78 255 0 0.000000
387992.220000 3551515.556000 -0.395000 76 255 0 0.000000
387992.880000 3551515.282997 -1.184000 45 255 0 0.000000
387994.049999 3551515.160004 -0.174999 85 255 0 0.000000
387991.136000 3551515.931000 1.783001 160 255 0 0.000000
387991.293000 3551515.566002 -0.308001 80 255 0 0.000000
387991.086000 3551515.057999 -3.827000 0 198 56 0.000000
387992.921000 3551515.103996 -0.861000 58 255 0 0.000000
387993.997000 3551514.955002 -0.184999 84 255 0 0.000000
387991.072000 3551515.726997 1.753000 160 255 0 0.000000
387990.734000 3551515.224998 -1.783001 22 255 0 0.000000
387992.030000 3551515.112000 -0.648001 66 255 0 0.000000
387992.903000 3551514.897003 -0.733999 63 255 0 0.000000
387993.861000 3551514.709999 -0.492001 72 255 0 0.000000
387990.139000 3551515.726997 1.746000 159 255 0 0.000000
387991.017000 3551515.526001 1.747999 160 255 0 0.000000
387991.222000 3551515.150002 -0.191000 84 255 0 0.000000
387991.613000 3551514.788002 -1.788000 22 255 0 0.000000
387992.788000 3551514.664001 -0.938999 55 255 0 0.000000
387993.716000 3551514.459999 -0.834999 59 255 0 0.000000
387990.735000 3551515.266998 1.136999 136 255 0 0.000000
387991.126000 3551514.922997 -0.305000 80 255 0 0.000000
387992.999000 3551514.541000 -0.032000 90 255 0 0.000000
387993.674000 3551514.247002 -0.788000 61 255 0 0.000000
387990.929000 3551515.132004 1.802000 161 255 0 0.000000
387991.473000 3551514.836998 0.858999 124 255 0 0.000000
387992.576000 3551514.714996 1.575001 153 255 0 0.000000
387993.070000 3551514.385002 0.382999 106 255 0 0.000000
387993.617001 3551514.037003 -0.799999 60 255 0 0.000000
387989.765000 3551515.072998 1.223000 139 255 0 0.000000
387990.840000 3551514.919998 1.712000 158 255 0 0.000000
387991.736000 3551514.727997 1.778999 160 255 0 0.000000
387992.570000 3551514.526001 1.722000 158 255 0 0.000000
387992.987000 3551514.162003 0.294001 103 255 0 0.000000
387993.594000 3551513.833000 -0.681000 65 255 0 0.000000
387989.636000 3551514.849998 1.045000 132 255 0 0.000000
387991.214000 3551514.843002 2.860001 202 255 0 0.000000
387991.911000 3551514.601997 2.437000 186 255 0 0.000000
387992.602000 3551514.358002 1.987000 169 255 0 0.000000
387992.560000 3551513.795998 -0.955000 54 255 0 0.000000
387993.792999 3551513.740997 0.242001 100 255 0 0.000000
387991.851000 3551514.403000 2.415001 185 255 0 0.000000
387992.584000 3551514.171997 2.091000 172 255 0 0.000000
387992.494000 3551513.575996 -0.988001 53 255 0 0.000000
387993.853001 3551513.587997 0.653000 117 255 0 0.000000
387991.257000 3551514.499001 3.260000 218 255 0 0.000000
387992.503000 3551513.958000 2.011000 169 255 0 0.000000
387992.342000 3551513.309998 -1.296000 41 255 0 0.000000
387993.775999 3551513.363998 0.570999 113 255 0 0.000000
387991.330000 3551514.348999 3.597000 231 255 0 0.000000
387991.664000 3551513.974998 2.197001 177 255 0 0.000000
387992.495000 3551513.777000 2.150999 174 255 0 0.000000
387993.038000 3551513.447998 1.184000 137 255 0 0.000000
387993.830999 3551513.214996 0.964001 129 255 0 0.000000
387991.239000 3551514.143997 3.496000 227 255 0 0.000000
387991.580000 3551513.764999 2.115999 174 255 0 0.000000
387992.472000 3551513.592003 2.243999 178 255 0 0.000000
387992.266000 3551512.890999 -1.166000 46 255 0 0.000000
387993.112000 3551512.639000 -1.409000 37 255 0 0.000000
387990.911000 3551513.848999 2.783001 199 255 0 0.000000
387991.505000 3551513.552002 2.063000 171 255 0 0.000000
387992.369000 3551513.364998 2.097000 173 255 0 0.000000
387992.849000 3551512.992996 0.929001 127 255 0 0.000000
387993.087000 3551512.432999 -1.289000 41 255 0 0.000000
387990.959000 3551513.695000 3.052000 210 255 0 0.000000
387991.612000 3551513.422997 2.511999 189 255 0 0.000000
387992.347000 3551513.184998 2.195000 177 255 0 0.000000
387992.862000 3551512.825996 1.142000 136 255 0 0.000000
387992.877000 3551512.126999 -1.832001 20 255 0 0.000000
387989.854000 3551513.086998 0.336000 104 255 0 0.000000
387991.162000 3551513.050003 1.421000 147 255 0 0.000000
387992.340000 3551512.362000 -0.357000 77 255 0 0.000000
387990.326000 3551513.088997 1.712000 158 255 0 0.000000
387991.233000 3551512.901001 1.777000 160 255 0 0.000000
387992.214000 3551512.108002 -0.575001 69 255 0 0.000000
387989.755000 3551512.670998 0.398001 107 255 0 0.000000
387991.247000 3551512.731003 1.973000 168 255 0 0.000000
387991.248000 3551512.552002 2.136999 174 255 0 0.000000
387990.100000 3551517.382004 -3.944000 0 193 61 0.000000
387992.869000 3551517.049004 -1.212000 44 255 0 0.000000
387990.055000 3551517.153999 -3.917999 0 194 60 0.000000
387992.788000 3551516.831001 -1.318001 40 255 0 0.000000
387989.952000 3551516.918999 -4.059999 0 189 65 0.000000
387991.705000 3551516.803001 -1.691000 26 255 0 0.000000
387992.677000 3551516.607002 -1.533001 32 255 0 0.000000
387990.965000 3551516.821999 -0.938000 55 255 0 0.000000
387991.683000 3551516.585999 -1.591999 29 255 0 0.000000
387992.613000 3551516.383003 -1.573000 30 255 0 0.000000
387990.901000 3551516.607002 -0.972000 53 255 0 0.000000
387991.472000 3551516.341003 -2.094000 10 255 0 0.000000
387992.671000 3551516.190002 -1.204000 44 255 0 0.000000
387993.766001 3551516.039001 -0.489000 72 255 0 0.000000
387990.763000 3551516.375000 -1.219000 44 255 0 0.000000
387991.492000 3551516.129997 -1.863001 19 255 0 0.000000
387992.387000 3551515.917000 -1.989000 14 255 0 0.000000
387993.681999 3551515.814003 -0.614000 68 255 0 0.000000
387990.015000 3551516.407997 -0.556000 70 255 0 0.000000
387990.899000 3551516.197998 -0.677000 65 255 0 0.000000
387991.925000 3551516.017998 -0.357000 77 255 0 0.000000
387992.857000 3551515.832001 -0.232000 83 255 0 0.000000
387993.503000 3551515.571999 -1.091999 49 255 0 0.000000
387990.675000 3551515.948997 -1.167999 46 255 0 0.000000
387991.884000 3551515.806999 -0.320999 79 255 0 0.000000
387993.367001 3551515.325996 -1.403000 37 255 0 0.000000
387993.544001 3551514.859001 -4.319000 0 179 75 0.000000
387989.789000 3551515.959000 -0.872000 58 255 0 0.000000
387991.614000 3551515.942001 1.667999 156 255 0 0.000000
387991.762000 3551515.578003 -0.541000 71 255 0 0.000000
387992.593000 3551515.362999 -0.775000 62 255 0 0.000000
387993.558001 3551515.190002 -0.524000 71 255 0 0.000000
387994.632000 3551515.061996 0.236000 100 255 0 0.000000
387990.832000 3551515.964996 2.037001 171 255 0 0.000000
387991.261000 3551515.680000 0.802999 122 255 0 0.000000
387990.805000 3551515.137001 -3.323000 0 217 37 0.000000
387991.710000 3551514.905998 -3.541000 0 209 45 0.000000
387993.561001 3551515.002998 -0.336000 78 255 0 0.000000
387990.854000 3551515.777000 2.230000 178 255 0 0.000000
387991.443000 3551515.525002 1.468000 148 255 0 0.000000
387991.638000 3551515.147003 -0.596001 68 255 0 0.000000
387993.354000 3551514.724998 -0.885000 57 255 0 0.000000
387994.568001 3551514.656998 0.372000 106 255 0 0.000000
387990.838000 3551515.588997 2.320999 181 255 0 0.000000
387991.481000 3551515.348999 1.718000 158 255 0 0.000000
387991.523000 3551514.918999 -0.792000 61 255 0 0.000000
387992.701000 3551514.811996 0.094000 95 255 0 0.000000
387993.355000 3551514.536003 -0.705000 64 255 0 0.000000
387994.436001 3551514.418999 0.035000 93 255 0 0.000000
387990.566000 3551515.342003 1.739000 159 255 0 0.000000
387991.308000 3551515.116997 1.372000 145 255 0 0.000000
387991.410000 3551514.688004 -0.969000 54 255 0 0.000000
387992.776000 3551514.649002 0.503000 111 255 0 0.000000
387993.304001 3551514.323997 -0.702999 64 255 0 0.000000
387994.275000 3551514.158997 -0.398001 76 255 0 0.000000
387990.443000 3551515.120003 1.556000 152 255 0 0.000000
387992.289000 3551514.772003 1.844000 163 255 0 0.000000
387992.765000 3551514.452003 0.639999 116 255 0 0.000000
387993.455999 3551514.190002 0.020000 92 255 0 0.000000
387993.940001 3551513.805000 -1.492001 33 255 0 0.000000
387991.195000 3551514.705002 1.348000 144 255 0 0.000000
387992.071000 3551514.515999 1.344000 144 255 0 0.000000
387992.943000 3551514.334999 1.384001 145 255 0 0.000000
387993.490000 3551514.017998 0.323000 104 255 0 0.000000
387993.393999 3551513.336998 -3.402000 0 214 40 0.000000
387990.926000 3551514.883003 3.084000 211 255 0 0.000000
387991.990000 3551514.303001 1.254000 140 255 0 0.000000
387993.455999 3551513.818001 0.382999 106 255 0 0.000000
387993.472000 3551513.177002 -2.889999 0 234 20 0.000000
387990.931000 3551514.704002 3.232000 217 255 0 0.000000
387992.149000 3551514.174004 1.886000 165 255 0 0.000000
387992.986000 3551513.985001 1.849001 163 255 0 0.000000
387993.395000 3551513.599998 0.354000 105 255 0 0.000000
387993.476000 3551512.975998 -2.659000 0 243 11 0.000000
387990.905000 3551514.521004 3.296000 219 255 0 0.000000
387991.643000 3551514.306999 3.021000 209 255 0 0.000000
387992.235000 3551514.030998 2.288000 180 255 0 0.000000
387992.772000 3551513.718002 1.325001 143 255 0 0.000000
387993.330999 3551513.389999 0.302999 103 255 0 0.000000
387993.402000 3551512.745003 -2.736000 0 240 14 0.000000
387991.617000 3551514.120003 3.089001 211 255 0 0.000000
387992.247000 3551513.855003 2.479000 188 255 0 0.000000
387993.250999 3551513.161003 0.212000 100 255 0 0.000000
387993.427999 3551512.558998 -2.426001 0 252 2 0.000000
387990.702000 3551514.098999 3.044001 210 255 0 0.000000
387991.483000 3551513.893997 2.867001 203 255 0 0.000000
387992.238000 3551513.675003 2.604000 192 255 0 0.000000
387992.651000 3551513.297997 1.273001 141 255 0 0.000000
387993.105000 3551512.900002 -0.110001 87 255 0 0.000000
387993.292000 3551512.285004 -2.725000 0 240 14 0.000000
387990.675000 3551513.914001 3.110001 212 255 0 0.000000
387991.446000 3551513.704002 2.906000 204 255 0 0.000000
387991.958000 3551513.377998 1.934999 166 255 0 0.000000
387992.782000 3551512.541000 -1.028999 51 255 0 0.000000
387989.495000 3551513.302002 0.263000 101 255 0 0.000000
387991.258000 3551513.448997 2.545000 190 255 0 0.000000
387991.888000 3551513.165001 1.892000 165 255 0 0.000000
387992.476000 3551512.847000 1.056999 133 255 0 0.000000
387992.756000 3551512.333000 -0.924999 56 255 0 0.000000
387989.483000 3551513.111000 0.379000 106 255 0 0.000000
387991.297000 3551513.292000 2.789000 200 255 0 0.000000
387991.901000 3551512.998001 2.080000 172 255 0 0.000000
387991.842000 3551512.342003 -0.759001 62 255 0 0.000000
387991.270000 3551513.108002 2.858999 202 255 0 0.000000
387990.694000 3551512.238998 -1.247000 43 255 0 0.000000
387991.014000 3551512.817001 2.323999 181 255 0 0.000000
387990.963000 3551512.612000 2.339001 182 255 0 0.000000
387990.994000 3551512.455002 2.566000 191 255 0 0.000000
387990.582000 3551517.431999 -4.194000 0 183 71 0.000000
387990.510000 3551517.194000 -4.257000 0 181 73 0.000000
387991.099000 3551517.036003 -2.298000 2 255 0 0.000000
387990.711000 3551516.648003 -6.750000 0 84 170 0.000000
387991.021000 3551516.811996 -2.388000 0 254 0 0.000000
387992.156000 3551516.642998 -1.804001 21 255 0 0.000000
387993.065001 3551516.448997 -1.862000 19 255 0 0.000000
387991.130000 3551516.614998 -1.903999 17 255 0 0.000000
387992.133000 3551516.430000 -1.726999 24 255 0 0.000000
387993.368000 3551516.306999 -0.613001 68 255 0 0.000000
387993.709000 3551515.987000 -2.739000 0 240 14 0.000000
387991.147000 3551516.408997 -1.709999 25 255 0 0.000000
387992.672000 3551516.330002 0.195000 99 255 0 0.000000
387993.891001 3551515.827003 -1.846001 20 255 0 0.000000
387990.739000 3551516.478996 -0.049999 89 255 0 0.000000
387991.197000 3551516.209999 -1.409000 37 255 0 0.000000
387992.581000 3551516.114998 0.049999 93 255 0 0.000000
387993.114000 3551515.845001 -1.181000 45 255 0 0.000000
387993.823000 3551515.602997 -1.927999 17 255 0 0.000000
387990.490000 3551516.232002 -0.608000 68 255 0 0.000000
387990.657000 3551515.890999 -2.874001 0 235 19 0.000000
387992.460000 3551515.885002 -0.190001 84 255 0 0.000000
387993.955000 3551515.435997 -1.230000 44 255 0 0.000000
387990.338000 3551516.000000 -0.892000 56 255 0 0.000000
387992.289000 3551515.643997 -0.587000 68 255 0 0.000000
387992.991000 3551515.403000 -1.278000 41 255 0 0.000000
387994.134001 3551515.299004 -0.360001 77 255 0 0.000000
387991.255000 3551515.982002 1.781000 160 255 0 0.000000
387991.388000 3551515.636002 -0.392000 76 255 0 0.000000
387992.133000 3551515.403000 -0.934999 55 255 0 0.000000
387992.969000 3551515.195999 -1.186001 45 255 0 0.000000
387994.138000 3551515.106003 -0.167999 85 255 0 0.000000
387991.139000 3551515.765999 1.594000 154 255 0 0.000000
387991.293000 3551515.408997 -0.527000 71 255 0 0.000000
387992.003000 3551515.161003 -1.191000 45 255 0 0.000000
387992.961000 3551514.988998 -1.041000 51 255 0 0.000000
387994.105000 3551514.897003 -0.110001 87 255 0 0.000000
387990.266000 3551515.760002 1.743999 159 255 0 0.000000
387991.094000 3551515.569000 1.599001 154 255 0 0.000000
387991.362000 3551515.232002 -0.181999 84 255 0 0.000000
387992.987000 3551514.805000 -0.787001 61 255 0 0.000000
387993.993999 3551514.667999 -0.361000 77 255 0 0.000000
387991.122000 3551515.386002 1.808001 162 255 0 0.000000
387991.277000 3551515.009003 -0.281000 80 255 0 0.000000
387992.677000 3551514.978996 1.264000 140 255 0 0.000000
387993.142000 3551514.662003 -0.079000 88 255 0 0.000000
387993.865999 3551514.417999 -0.658001 66 255 0 0.000000
387990.932000 3551515.148003 1.423000 147 255 0 0.000000
387991.183000 3551514.782997 -0.409000 76 255 0 0.000000
387993.243000 3551514.510002 0.431000 108 255 0 0.000000
387993.733000 3551514.167999 -0.979000 53 255 0 0.000000
387990.926000 3551514.959000 1.538000 151 255 0 0.000000
387991.669000 3551514.739998 1.156000 136 255 0 0.000000
387992.589000 3551514.577003 1.287001 142 255 0 0.000000
387993.716999 3551513.968002 -0.858999 58 255 0 0.000000
387990.931000 3551514.769997 1.691000 157 255 0 0.000000
387991.965000 3551514.647003 2.160000 175 255 0 0.000000
387993.091000 3551514.066002 0.247000 101 255 0 0.000000
387993.737000 3551513.779999 -0.597000 68 255 0 0.000000
387991.063000 3551514.626999 2.174999 176 255 0 0.000000
387991.942000 3551514.461998 2.229000 178 255 0 0.000000
387992.421000 3551514.143997 1.062000 133 255 0 0.000000
387992.797000 3551513.753998 -0.589001 68 255 0 0.000000
387993.929001 3551513.692001 0.288000 103 255 0 0.000000
387989.632000 3551514.458000 0.907000 127 255 0 0.000000
387991.914000 3551514.267998 2.291000 180 255 0 0.000000
387992.595000 3551514.026001 1.757999 160 255 0 0.000000
387992.652000 3551513.492996 -0.903000 56 255 0 0.000000
387994.011999 3551513.545998 0.774000 121 255 0 0.000000
387991.428000 3551514.380997 3.417999 224 255 0 0.000000
387992.613000 3551513.848000 1.966000 168 255 0 0.000000
387992.713000 3551513.323997 -0.525000 71 255 0 0.000000
387993.277000 3551512.966003 -1.731001 24 255 0 0.000000
387989.556000 3551514.051003 0.983000 130 255 0 0.000000
387991.345000 3551514.180000 3.323999 220 255 0 0.000000
387991.886000 3551513.898003 2.490000 188 255 0 0.000000
387992.673000 3551513.698997 2.295000 180 255 0 0.000000
387992.989000 3551513.275002 0.563000 113 255 0 0.000000
387993.959999 3551513.156998 0.933001 127 255 0 0.000000
387989.566000 3551513.869003 1.139000 136 255 0 0.000000
387991.357000 3551514.011002 3.487000 227 255 0 0.000000
387992.390000 3551513.393997 1.575001 153 255 0 0.000000
387993.177000 3551512.529999 -1.723000 24 255 0 0.000000
387990.520000 3551513.515999 1.408001 146 255 0 0.000000
387991.654000 3551513.443001 2.114000 174 255 0 0.000000
387992.376000 3551513.204002 1.690001 157 255 0 0.000000
387992.434000 3551512.612999 -0.937000 55 255 0 0.000000
387993.230000 3551512.362999 -1.341000 39 255 0 0.000000
387990.908000 3551513.484001 2.566999 191 255 0 0.000000
387991.583000 3551513.233002 2.056000 171 255 0 0.000000
387991.143000 3551512.424004 -1.903999 17 255 0 0.000000
387992.564000 3551512.492996 -0.337999 78 255 0 0.000000
387990.988000 3551513.339996 2.910999 204 255 0 0.000000
387991.588000 3551513.056999 2.212999 177 255 0 0.000000
387991.140000 3551512.225998 -1.743999 23 255 0 0.000000
387992.433000 3551512.235001 -0.594999 68 255 0 0.000000
387989.955000 3551512.727997 0.354000 105 255 0 0.000000
387991.598000 3551512.885002 2.384001 184 255 0 0.000000
