387949.931000 3551524.930000 8.570000 255 85 0 0.000000
387950.270000 3551525.120003 8.709999 255 80 0 0.000000
387950.330999 3551525.098999 9.080999 255 65 0 0.000000
387950.681000 3551525.639000 -5.778999 0 122 132 0.000000
387948.621000 3551523.620003 0.500000 111 255 0 0.000000
387949.139999 3551523.918999 0.451000 109 255 0 0.000000
387949.931000 3551524.410004 0.160000 97 255 0 0.000000
387950.541000 3551521.378998 1.010000 130 255 0 0.000000
387949.660999 3551522.459000 1.381001 145 255 0 0.000000
387949.350000 3551523.940002 1.190001 138 255 0 0.000000
387947.011000 3551525.610001 2.530001 189 255 0 0.000000
387950.621000 3551521.378998 1.400999 146 255 0 0.000000
387950.389999 3551522.889000 1.160000 136 255 0 0.000000
387948.580999 3551525.028999 1.940001 167 255 0 0.000000
387947.181000 3551525.668999 2.830999 201 255 0 0.000000
387949.910999 3551522.518997 2.061001 171 255 0 0.000000
387950.250000 3551524.448997 1.271000 141 255 0 0.000000
387947.681000 3551524.290001 3.250000 218 255 0 0.000000
387947.121000 3551525.550003 3.330999 221 255 0 0.000000
387949.670000 3551523.980003 2.291000 180 255 0 0.000000
387947.820000 3551524.330002 3.570000 230 255 0 0.000000
387947.250000 3551525.569000 3.660000 234 255 0 0.000000
387950.900999 3551523.069000 2.061001 171 255 0 0.000000
387950.080999 3551524.198997 2.370001 183 255 0 0.000000
387948.090000 3551524.459000 3.771000 238 255 0 0.000000
387947.431000 3551525.639000 3.940001 244 255 0 0.000000
387950.309999 3551524.300003 2.600000 192 255 0 0.000000
387948.030001 3551524.360001 4.240999 255 253 0 0.000000
387947.520000 3551525.639000 4.271000 255 252 0 0.000000
387949.261000 3551523.528999 4.000000 247 255 0 0.000000
387947.809999 3551524.128998 4.889999 255 228 0 0.000000
387947.350000 3551525.430000 4.881001 255 228 0 0.000000
387950.301001 3551522.518997 3.951000 245 255 0 0.000000
387949.090000 3551523.348999 4.591000 255 240 0 0.000000
387947.920000 3551524.150002 5.221001 255 215 0 0.000000
387947.650999 3551525.588997 5.041000 255 222 0 0.000000
387948.900999 3551523.160004 5.201000 255 216 0 0.000000
387948.051001 3551524.168999 5.541000 255 203 0 0.000000
387947.871000 3551525.690002 5.291000 255 212 0 0.000000
387950.150999 3551522.330002 4.959999 255 225 0 0.000000
387949.371000 3551523.430000 5.221001 255 215 0 0.000000
387948.309999 3551524.308998 5.740999 255 195 0 0.000000
387949.861000 3551527.150002 3.951000 245 255 0 0.000000
387950.420000 3551522.448997 5.139999 255 218 0 0.000000
387949.051001 3551523.160004 5.910000 255 188 0 0.000000
387948.530001 3551524.400002 5.959999 255 186 0 0.000000
387949.389999 3551526.720001 4.791000 255 231 0 0.000000
387949.361000 3551523.319000 6.070000 255 182 0 0.000000
387950.330999 3551525.639000 4.850000 255 229 0 0.000000
387948.139999 3551525.690002 6.330999 255 171 0 0.000000
387949.471001 3551523.338997 6.400999 255 169 0 0.000000
387948.611000 3551524.338997 6.740999 255 156 0 0.000000
387948.301001 3551525.750000 6.611000 255 161 0 0.000000
387950.530001 3551524.000000 5.940001 255 187 0 0.000000
387948.721001 3551524.360001 7.061001 255 144 0 0.000000
387948.700001 3551525.980003 6.690001 255 158 0 0.000000
387950.320000 3551523.808998 6.541000 255 164 0 0.000000
387949.291000 3551524.709000 7.010000 255 145 0 0.000000
387949.580999 3551526.588997 6.389999 255 169 0 0.000000
387950.160999 3551523.650002 7.080999 255 143 0 0.000000
387949.301001 3551524.660004 7.410000 255 130 0 0.000000
387948.731001 3551525.878998 7.490999 255 127 0 0.000000
387950.441000 3551523.790001 7.280001 255 135 0 0.000000
387949.150999 3551524.500000 7.940001 255 109 0 0.000000
387949.000000 3551526.010002 7.701000 255 118 0 0.000000
387950.959999 3551524.080002 7.280001 255 135 0 0.000000
387949.551001 3551524.720001 8.030001 255 106 0 0.000000
387949.121000 3551526.040001 8.021000 255 106 0 0.000000
387951.471001 3551524.378998 7.299999 255 134 0 0.000000
387949.621000 3551524.720001 8.381001 255 92 0 0.000000
387951.100000 3551524.080002 7.990999 255 107 0 0.000000
387949.910999 3551524.870003 8.561001 255 85 0 0.000000
387950.320000 3551525.110001 8.639999 255 83 0 0.000000
387950.600000 3551525.250000 8.850000 255 74 0 0.000000
387950.650999 3551525.598999 -5.819000 0 121 133 0.000000
387948.570000 3551523.558998 0.480000 110 255 0 0.000000
387948.959999 3551523.768997 0.570000 113 255 0 0.000000
387949.900999 3551524.360001 0.131001 97 255 0 0.000000
387949.629999 3551522.410004 1.341000 143 255 0 0.000000
387949.340000 3551523.900002 1.150999 136 255 0 0.000000
387950.530001 3551521.290001 1.410000 146 255 0 0.000000
387950.450001 3551522.889000 1.030001 131 255 0 0.000000
387949.981001 3551526.040001 0.510000 111 255 0 0.000000
387949.920000 3551522.500000 1.980000 169 255 0 0.000000
387950.080999 3551524.300003 1.370001 145 255 0 0.000000
387947.981001 3551524.480003 2.910000 204 255 0 0.000000
387947.150999 3551525.540001 3.240999 217 255 0 0.000000
387950.371000 3551522.738998 2.030001 170 255 0 0.000000
387949.660999 3551523.940002 2.240999 178 255 0 0.000000
387947.820000 3551524.300003 3.510000 228 255 0 0.000000
387947.330999 3551525.610001 3.530001 228 255 0 0.000000
387950.889999 3551523.028999 2.010000 169 255 0 0.000000
387949.959999 3551524.088997 2.420000 186 255 0 0.000000
387948.051001 3551524.400002 3.740999 237 255 0 0.000000
387947.481001 3551525.639000 3.830999 240 255 0 0.000000
387951.181000 3551523.160004 2.221001 177 255 0 0.000000
387950.309999 3551524.268997 2.561001 191 255 0 0.000000
387948.121000 3551524.378998 4.131001 252 255 0 0.000000
387950.600000 3551524.410004 2.750000 198 255 0 0.000000
387947.830999 3551524.110001 4.820000 255 231 0 0.000000
387947.691000 3551525.660004 4.521000 255 242 0 0.000000
387950.291000 3551522.488998 3.889999 243 255 0 0.000000
387949.379999 3551523.510002 4.280001 255 252 0 0.000000
387947.950001 3551524.128998 5.139999 255 218 0 0.000000
387947.541000 3551525.470001 5.091000 255 220 0 0.000000
387948.931000 3551523.139000 5.120001 255 219 0 0.000000
387948.030001 3551524.128998 5.510000 255 204 0 0.000000
387947.879999 3551525.668999 5.221001 255 215 0 0.000000
387950.420000 3551522.470001 4.650999 255 237 0 0.000000
387949.340000 3551523.370003 5.181000 255 216 0 0.000000
387948.320000 3551524.278999 5.670000 255 198 0 0.000000
387950.420000 3551522.418999 5.100000 255 219 0 0.000000
387949.041000 3551523.110001 5.881001 255 189 0 0.000000
387948.511000 3551524.348999 5.951000 255 186 0 0.000000
387949.379999 3551526.668999 4.780001 255 232 0 0.000000
387950.590000 3551522.488998 5.370001 255 209 0 0.000000
387949.410999 3551523.308998 5.980000 255 186 0 0.000000
387950.340000 3551525.620003 4.791000 255 231 0 0.000000
387948.170000 3551525.668999 6.250000 255 175 0 0.000000
387949.389999 3551523.238998 6.410000 255 169 0 0.000000
387948.650999 3551524.330002 6.650999 255 160 0 0.000000
387948.361000 3551525.760002 6.500000 255 166 0 0.000000
387948.830999 3551524.400002 6.931000 255 148 0 0.000000
387948.700001 3551525.940002 6.650999 255 160 0 0.000000
387950.900999 3551524.160004 6.021000 255 184 0 0.000000
387949.309999 3551524.680000 6.940001 255 148 0 0.000000
387948.871000 3551526.010002 6.931000 255 148 0 0.000000
387950.231001 3551523.660004 6.980000 255 147 0 0.000000
387949.459999 3551524.730003 7.230000 255 137 0 0.000000
387948.709999 3551525.819000 7.471001 255 127 0 0.000000
387950.309999 3551523.660004 7.320000 255 133 0 0.000000
387949.170000 3551524.470001 7.870001 255 112 0 0.000000
387948.981001 3551525.959000 7.670000 255 120 0 0.000000
387949.431000 3551524.598999 8.080999 255 104 0 0.000000
387949.221001 3551526.080002 7.881001 255 112 0 0.000000
387951.410999 3551524.300003 7.299999 255 134 0 0.000000
387949.629999 3551524.680000 8.330999 255 94 0 0.000000
387949.191000 3551525.988998 8.320000 255 94 0 0.000000
387951.080999 3551524.028999 7.951000 255 109 0 0.000000
387949.879999 3551524.808998 8.530001 255 86 0 0.000000
387950.371000 3551525.098999 8.570000 255 85 0 0.000000
387950.691000 3551525.268997 8.730000 255 79 0 0.000000
387948.580999 3551523.518997 0.480000 110 255 0 0.000000
387948.959999 3551523.730003 0.570000 113 255 0 0.000000
387949.889999 3551524.319000 0.139999 97 255 0 0.000000
387949.650999 3551522.389000 1.330999 143 255 0 0.000000
387949.361000 3551523.878998 1.131001 136 255 0 0.000000
387950.551001 3551521.268997 1.400999 146 255 0 0.000000
387950.481001 3551522.878998 1.000000 130 255 0 0.000000
387949.221001 3551523.720001 1.730000 159 255 0 0.000000
387949.080999 3551525.330002 1.389999 145 255 0 0.000000
387949.971001 3551522.488998 1.951000 167 255 0 0.000000
387949.871000 3551524.110001 1.570000 152 255 0 0.000000
387947.900999 3551524.378998 2.990999 207 255 0 0.000000
387947.221001 3551525.550003 3.181000 215 255 0 0.000000
387950.361000 3551522.690002 2.041000 171 255 0 0.000000
387949.650999 3551523.889000 2.240999 178 255 0 0.000000
387947.830999 3551524.260002 3.510000 228 255 0 0.000000
387947.379999 3551525.598999 3.480000 227 255 0 0.000000
387950.889999 3551522.988998 2.000000 169 255 0 0.000000
387949.889999 3551524.000000 2.480000 188 255 0 0.000000
387948.059999 3551524.370003 3.730000 237 255 0 0.000000
387947.580999 3551525.680000 3.730000 237 255 0 0.000000
387951.160999 3551523.110001 2.230000 178 255 0 0.000000
387950.291000 3551524.209000 2.580999 192 255 0 0.000000
387948.121000 3551524.338997 4.131001 252 255 0 0.000000
387948.090000 3551526.010002 3.709999 235 255 0 0.000000
387950.670000 3551524.418999 2.690001 196 255 0 0.000000
387947.889999 3551524.110001 4.771000 255 232 0 0.000000
387947.731001 3551525.650002 4.490999 255 243 0 0.000000
387949.020000 3551523.230003 4.600000 255 239 0 0.000000
387948.020000 3551524.139000 5.080999 255 220 0 0.000000
387947.660999 3551525.518997 4.990999 255 224 0 0.000000
387948.820000 3551523.028999 5.209999 255 216 0 0.000000
387948.270000 3551524.260002 5.291000 255 212 0 0.000000
387947.950001 3551525.680000 5.160000 255 217 0 0.000000
387950.371000 3551522.400002 4.701000 255 235 0 0.000000
387949.721001 3551523.588997 4.861000 255 229 0 0.000000
387948.340000 3551524.238998 5.660000 255 198 0 0.000000
387949.070000 3551526.470001 4.591000 255 240 0 0.000000
387950.471001 3551522.410004 5.049999 255 222 0 0.000000
387949.090000 3551523.110001 5.830999 255 191 0 0.000000
387948.551001 3551524.338997 5.900999 255 189 0 0.000000
387948.240000 3551525.760002 5.771000 255 194 0 0.000000
387949.530001 3551523.348999 5.889999 255 189 0 0.000000
387948.920000 3551524.540001 6.010000 255 184 0 0.000000
387948.200001 3551525.650002 6.240999 255 175 0 0.000000
387949.450001 3551523.238998 6.361000 255 171 0 0.000000
387948.691000 3551524.319000 6.611000 255 161 0 0.000000
387948.379999 3551525.730003 6.490999 255 166 0 0.000000
387949.900999 3551523.500000 6.420000 255 169 0 0.000000
387948.879999 3551524.389000 6.889999 255 150 0 0.000000
387948.721001 3551525.910004 6.639999 255 160 0 0.000000
387950.850000 3551524.088997 6.061001 255 183 0 0.000000
387949.340000 3551524.668999 6.910000 255 149 0 0.000000
387948.801001 3551525.910004 6.980000 255 147 0 0.000000
387950.181000 3551523.580002 7.021000 255 145 0 0.000000
387949.530001 3551524.738998 7.181000 255 139 0 0.000000
387948.750000 3551525.800003 7.451000 255 128 0 0.000000
387950.350000 3551523.639000 7.299999 255 134 0 0.000000
387949.261000 3551524.488998 7.811001 255 115 0 0.000000
387949.041000 3551525.959000 7.620001 255 122 0 0.000000
387949.431000 3551524.558998 8.070000 255 104 0 0.000000
387949.231001 3551526.040001 7.870001 255 112 0 0.000000
387951.080999 3551524.028999 7.549999 255 124 0 0.000000
387949.629999 3551524.639000 8.320000 255 94 0 0.000000
387949.231001 3551525.970001 8.291000 255 96 0 0.000000
387951.121000 3551524.010002 7.931000 255 109 0 0.000000
387949.871000 3551524.750000 8.549999 255 85 0 0.000000
387950.011000 3551524.800003 8.850000 255 74 0 0.000000
387950.709999 3551525.238998 8.721001 255 79 0 0.000000
387950.770000 3551525.230003 9.080999 255 65 0 0.000000
387948.350000 3551523.389000 0.361000 106 255 0 0.000000
387948.681000 3551523.569000 0.500000 111 255 0 0.000000
387949.030001 3551523.750000 0.631001 116 255 0 0.000000
387951.139999 3551521.698997 0.021000 92 255 0 0.000000
387949.871000 3551524.268997 0.271000 102 255 0 0.000000
387950.340000 3551522.808998 0.791000 122 255 0 0.000000
387949.250000 3551523.778999 1.350000 144 255 0 0.000000
387950.639999 3551521.300003 1.431000 147 255 0 0.000000
387950.160999 3551522.639000 1.420000 147 255 0 0.000000
387949.291000 3551523.738998 1.780001 160 255 0 0.000000
387948.861000 3551525.128998 1.730000 159 255 0 0.000000
387950.051001 3551522.518997 1.980000 169 255 0 0.000000
387949.941000 3551524.128998 1.631001 154 255 0 0.000000
387947.971001 3551524.400002 3.041000 210 255 0 0.000000
387947.280001 3551525.558998 3.250000 218 255 0 0.000000
387950.450001 3551522.720001 2.080999 172 255 0 0.000000
387949.700001 3551523.889000 2.330999 182 255 0 0.000000
387947.850000 3551524.238998 3.620001 232 255 0 0.000000
387947.441000 3551525.598999 3.561001 230 255 0 0.000000
387950.950001 3551523.000000 2.070000 171 255 0 0.000000
387950.111000 3551524.120003 2.389999 184 255 0 0.000000
387948.221001 3551524.440002 3.701000 235 255 0 0.000000
387948.330999 3551526.230003 3.139999 213 255 0 0.000000
387950.541000 3551524.360001 2.459999 187 255 0 0.000000
387948.059999 3551524.260002 4.299999 255 251 0 0.000000
387947.670000 3551525.628998 4.230000 255 254 0 0.000000
387950.879999 3551524.528999 2.620001 193 255 0 0.000000
387947.879999 3551524.058998 4.900999 255 228 0 0.000000
387947.809999 3551525.668999 4.541000 255 241 0 0.000000
387950.950001 3551522.838997 3.440001 225 255 0 0.000000
387948.879999 3551523.088997 4.850000 255 229 0 0.000000
387947.971001 3551524.058998 5.250000 255 214 0 0.000000
387947.809999 3551525.598999 4.971001 255 225 0 0.000000
387950.240000 3551522.319000 4.510000 255 243 0 0.000000
387948.840000 3551523.000000 5.320000 255 211 0 0.000000
387948.420000 3551524.330002 5.291000 255 212 0 0.000000
387948.761000 3551526.260002 4.561001 255 240 0 0.000000
387950.361000 3551522.360001 4.830999 255 230 0 0.000000
387949.731001 3551523.569000 4.959999 255 225 0 0.000000
387948.410999 3551524.260002 5.709999 255 196 0 0.000000
387949.389999 3551526.680000 4.420000 255 246 0 0.000000
387949.209999 3551523.150002 5.841000 255 191 0 0.000000
387948.670000 3551524.389000 5.910000 255 188 0 0.000000
387948.250000 3551525.720001 5.881001 255 189 0 0.000000
387949.541000 3551523.319000 5.990999 255 185 0 0.000000
387948.261000 3551525.660004 6.291000 255 174 0 0.000000
387949.600000 3551523.308998 6.350000 255 171 0 0.000000
387948.721001 3551524.300003 6.709999 255 157 0 0.000000
387949.400999 3551526.459000 5.740999 255 195 0 0.000000
387950.639999 3551523.970001 5.920000 255 188 0 0.000000
387948.910999 3551524.370003 6.980000 255 147 0 0.000000
387948.770000 3551525.910004 6.709999 255 157 0 0.000000
387950.350000 3551523.709000 6.580999 255 163 0 0.000000
387949.691000 3551524.878998 6.740999 255 156 0 0.000000
387948.770000 3551525.848999 7.131001 255 141 0 0.000000
387950.270000 3551523.610001 7.061001 255 144 0 0.000000
387949.441000 3551524.639000 7.361000 255 132 0 0.000000
387948.820000 3551525.819000 7.500000 255 127 0 0.000000
387950.590000 3551523.768997 7.221001 255 137 0 0.000000
387949.291000 3551524.470001 7.889999 255 112 0 0.000000
387949.100000 3551525.970001 7.681000 255 119 0 0.000000
387951.000000 3551523.988998 7.311001 255 134 0 0.000000
387949.611000 3551524.639000 8.049999 255 105 0 0.000000
387949.209999 3551525.980003 8.010000 255 106 0 0.000000
387949.700001 3551524.650002 8.389999 255 92 0 0.000000
387949.320000 3551526.000000 8.341000 255 94 0 0.000000
387949.959999 3551524.778999 8.591000 255 84 0 0.000000
387950.520000 3551525.120003 8.570000 255 85 0 0.000000
387950.681000 3551525.180000 8.850000 255 74 0 0.000000
387948.511000 3551523.360001 0.521000 112 255 0 0.000000
387948.950001 3551523.598999 0.541000 112 255 0 0.000000
387949.301001 3551523.778999 0.681000 118 255 0 0.000000
387949.600000 3551522.238998 1.341000 143 255 0 0.000000
387949.350000 3551523.760002 1.100000 134 255 0 0.000000
387950.611000 3551521.190002 1.299999 142 255 0 0.000000
387950.481001 3551522.768997 0.959999 129 255 0 0.000000
387949.129999 3551523.540001 1.780001 160 255 0 0.000000
387948.541000 3551524.808998 1.881001 164 255 0 0.000000
387950.889999 3551521.319000 1.500000 150 255 0 0.000000
387949.950001 3551522.360001 1.920000 166 255 0 0.000000
387949.840000 3551523.970001 1.561001 152 255 0 0.000000
387947.861000 3551524.230003 3.000000 208 255 0 0.000000
387947.410999 3551525.580002 2.959999 207 255 0 0.000000
387951.441000 3551521.610001 1.451000 148 255 0 0.000000
387950.389999 3551522.588997 1.980000 169 255 0 0.000000
387949.611000 3551523.750000 2.240999 178 255 0 0.000000
387947.850000 3551524.160004 3.451000 225 255 0 0.000000
387947.511000 3551525.580002 3.320000 220 255 0 0.000000
387950.941000 3551522.900002 1.931000 166 255 0 0.000000
387949.941000 3551523.918999 2.400999 184 255 0 0.000000
387948.090000 3551524.268997 3.681000 234 255 0 0.000000
387947.660999 3551525.620003 3.639999 233 255 0 0.000000
387951.080999 3551522.940002 2.271000 180 255 0 0.000000
387949.240000 3551523.370003 3.500000 228 255 0 0.000000
387948.309999 3551524.360001 3.920000 243 255 0 0.000000
387948.490000 3551526.190002 3.299999 219 255 0 0.000000
387950.090000 3551523.900002 3.181000 215 255 0 0.000000
387947.820000 3551523.930000 4.820000 255 231 0 0.000000
387947.820000 3551525.598999 4.381001 255 248 0 0.000000
387949.059999 3551523.128998 4.541000 255 241 0 0.000000
387948.121000 3551524.088997 4.971001 255 225 0 0.000000
387947.780001 3551525.488998 4.850000 255 229 0 0.000000
387948.791000 3551522.889000 5.221001 255 215 0 0.000000
387948.431000 3551524.250000 5.131001 255 219 0 0.000000
387947.931000 3551525.528999 5.160000 255 217 0 0.000000
387950.340000 3551522.250000 4.709999 255 235 0 0.000000
387949.541000 3551523.348999 4.990999 255 224 0 0.000000
387948.791000 3551524.448997 5.240999 255 214 0 0.000000
387948.931000 3551526.238998 4.701000 255 235 0 0.000000
387949.471001 3551523.250000 5.459999 255 206 0 0.000000
387948.600000 3551524.250000 5.820000 255 192 0 0.000000
387948.350000 3551525.720001 5.631001 255 199 0 0.000000
387949.590000 3551523.268997 5.811001 255 192 0 0.000000
387948.871000 3551524.389000 6.030001 255 183 0 0.000000
387948.340000 3551525.639000 6.091000 255 181 0 0.000000
387949.629999 3551523.238998 6.201000 255 177 0 0.000000
387949.011000 3551524.430000 6.330999 255 171 0 0.000000
387948.530001 3551525.709000 6.350000 255 171 0 0.000000
387949.791000 3551523.300003 6.471001 255 166 0 0.000000
387948.959999 3551524.330002 6.780001 255 154 0 0.000000
387948.770000 3551525.838997 6.549999 255 163 0 0.000000
387950.840000 3551523.959000 6.030001 255 183 0 0.000000
387949.511000 3551524.660004 6.750000 255 156 0 0.000000
387949.611000 3551526.400002 6.280001 255 174 0 0.000000
387950.379999 3551523.588997 6.830999 255 153 0 0.000000
387949.520000 3551524.610001 7.160000 255 139 0 0.000000
387948.761000 3551525.690002 7.400999 255 130 0 0.000000
387950.309999 3551523.500000 7.299999 255 134 0 0.000000
387949.309999 3551524.400002 7.740999 255 117 0 0.000000
387949.221001 3551525.980003 7.440001 255 129 0 0.000000
387950.931000 3551523.860001 7.230000 255 137 0 0.000000
387949.791000 3551524.690002 7.771000 255 116 0 0.000000
387949.160999 3551525.860001 7.910000 255 110 0 0.000000
387951.121000 3551523.940002 7.480000 255 127 0 0.000000
387949.809999 3551524.650002 8.150999 255 101 0 0.000000
387949.371000 3551525.959000 8.139999 255 102 0 0.000000
387950.080999 3551524.778999 8.350000 255 94 0 0.000000
387950.090000 3551524.730003 8.750000 255 78 0 0.000000
387950.750000 3551525.150002 8.670000 255 81 0 0.000000
387949.270000 3551523.838997 -0.778999 61 255 0 0.000000
387948.621000 3551523.308998 0.389999 106 255 0 0.000000
387948.981001 3551523.500000 0.500000 111 255 0 0.000000
387950.780001 3551521.268997 0.170000 98 255 0 0.000000
387949.261000 3551523.639000 0.681000 118 255 0 0.000000
387950.261000 3551522.500000 1.150999 136 255 0 0.000000
387949.090000 3551523.389000 1.791000 161 255 0 0.000000
387948.520000 3551524.668999 1.870001 164 255 0 0.000000
387950.700001 3551521.080002 1.650999 156 255 0 0.000000
387950.080999 3551522.330002 1.771000 160 255 0 0.000000
387949.459999 3551523.588997 1.900999 166 255 0 0.000000
387947.861000 3551524.110001 2.971001 207 255 0 0.000000
387951.511000 3551521.528999 1.370001 145 255 0 0.000000
387950.330999 3551522.430000 2.010000 169 255 0 0.000000
387949.660999 3551523.660004 2.181000 176 255 0 0.000000
387948.200001 3551524.290001 3.100000 212 255 0 0.000000
387947.541000 3551525.480003 3.280001 219 255 0 0.000000
387950.920000 3551522.768997 1.920000 166 255 0 0.000000
387949.971001 3551523.819000 2.330999 182 255 0 0.000000
387948.070000 3551524.128998 3.660000 234 255 0 0.000000
387947.650999 3551525.500000 3.600000 231 255 0 0.000000
387951.111000 3551522.838997 2.209999 177 255 0 0.000000
387949.191000 3551523.220001 3.510000 228 255 0 0.000000
387948.350000 3551524.268997 3.850000 241 255 0 0.000000
387947.900999 3551525.610001 3.830999 240 255 0 0.000000
387949.410999 3551523.308998 3.760000 237 255 0 0.000000
387948.011000 3551523.959000 4.600000 255 239 0 0.000000
387947.791000 3551525.448997 4.370001 255 248 0 0.000000
387949.181000 3551523.098999 4.410000 255 246 0 0.000000
387947.971001 3551523.860001 5.080999 255 220 0 0.000000
387948.041000 3551525.569000 4.591000 255 240 0 0.000000
387948.941000 3551522.870003 5.061001 255 221 0 0.000000
387948.410999 3551524.110001 5.120001 255 219 0 0.000000
387948.011000 3551525.480003 5.049999 255 222 0 0.000000
387949.221001 3551523.010002 5.230000 255 215 0 0.000000
387948.791000 3551524.330002 5.201000 255 216 0 0.000000
387948.770000 3551525.988998 4.791000 255 231 0 0.000000
387949.830999 3551523.370003 5.139999 255 218 0 0.000000
387948.660999 3551524.168999 5.750000 255 195 0 0.000000
387948.200001 3551525.488998 5.740999 255 195 0 0.000000
387949.481001 3551523.080002 5.861000 255 190 0 0.000000
387948.450001 3551523.970001 6.350000 255 171 0 0.000000
387948.350000 3551525.528999 6.041000 255 183 0 0.000000
387949.740000 3551523.209000 6.061001 255 183 0 0.000000
387948.639999 3551524.040001 6.600000 255 161 0 0.000000
387949.691000 3551523.120003 6.521000 255 165 0 0.000000
387948.801001 3551524.088997 6.881001 255 151 0 0.000000
387948.559999 3551525.550003 6.701000 255 157 0 0.000000
387950.590000 3551523.680000 6.190001 255 177 0 0.000000
387949.850000 3551524.790001 6.431000 255 168 0 0.000000
387949.709999 3551526.360001 6.150999 255 179 0 0.000000
387950.420000 3551523.500000 6.760000 255 155 0 0.000000
387949.740000 3551524.650002 6.940001 255 148 0 0.000000
387949.030001 3551525.778999 7.150999 255 140 0 0.000000
387950.431000 3551523.459000 7.170000 255 139 0 0.000000
387949.431000 3551524.370003 7.611000 255 122 0 0.000000
387949.209999 3551525.848999 7.420000 255 130 0 0.000000
387950.941000 3551523.750000 7.181000 255 139 0 0.000000
387949.530001 3551524.389000 7.931000 255 109 0 0.000000
387949.371000 3551525.900002 7.701000 255 118 0 0.000000
387950.080999 3551524.720001 7.910000 255 110 0 0.000000
387949.379999 3551525.838997 8.100000 255 103 0 0.000000
387950.160999 3551524.720001 8.250000 255 97 0 0.000000
387950.471001 3551526.610001 7.650999 255 121 0 0.000000
387950.129999 3551524.639000 8.690001 255 80 0 0.000000
387950.361000 3551526.448997 8.160000 255 100 0 0.000000
387950.879999 3551525.120003 8.510000 255 87 0 0.000000
387949.600000 3551523.988998 -1.590000 29 255 0 0.000000
387949.280001 3551523.690002 -0.759001 62 255 0 0.000000
387948.681000 3551523.198997 0.341000 105 255 0 0.000000
387949.111000 3551523.440002 0.400999 107 255 0 0.000000
387949.270000 3551523.488998 0.709999 119 255 0 0.000000
387949.280001 3551525.230003 0.190001 99 255 0 0.000000
387949.459999 3551523.558998 0.990999 130 255 0 0.000000
387949.580999 3551525.378998 0.381001 106 255 0 0.000000
387950.041000 3551522.198997 1.381001 145 255 0 0.000000
387949.051001 3551523.209000 1.850000 163 255 0 0.000000
387947.931000 3551524.080002 2.471001 187 255 0 0.000000
387950.389999 3551522.378998 1.500000 150 255 0 0.000000
387949.221001 3551523.268997 2.150999 174 255 0 0.000000
387947.931000 3551524.010002 2.920000 204 255 0 0.000000
387947.320000 3551525.238998 3.041000 210 255 0 0.000000
387950.059999 3551522.110001 2.280001 180 255 0 0.000000
387949.670000 3551523.518997 2.190001 177 255 0 0.000000
387948.309999 3551524.230003 3.021000 209 255 0 0.000000
387947.700001 3551525.448997 3.139999 213 255 0 0.000000
387950.209999 3551522.160004 2.591000 192 255 0 0.000000
387950.090000 3551523.750000 2.240999 178 255 0 0.000000
387948.761000 3551524.488998 3.030001 209 255 0 0.000000
387947.629999 3551525.330002 3.650999 233 255 0 0.000000
387949.250000 3551523.110001 3.490999 227 255 0 0.000000
387947.850000 3551523.750000 4.350000 255 249 0 0.000000
387947.481001 3551525.128998 4.250000 255 252 0 0.000000
387949.471001 3551523.209000 3.721001 236 255 0 0.000000
387947.840000 3551523.680000 4.791000 255 231 0 0.000000
387947.801001 3551525.308998 4.381001 255 248 0 0.000000
387949.431000 3551523.120003 4.201000 255 255 0 0.000000
387948.389999 3551524.018997 4.709999 255 235 0 0.000000
387948.111000 3551525.470001 4.541000 255 241 0 0.000000
387949.080999 3551522.819000 4.951000 255 225 0 0.000000
387948.490000 3551524.028999 5.061001 255 221 0 0.000000
387947.950001 3551525.278999 5.131001 255 219 0 0.000000
387948.879999 3551524.250000 5.139999 255 218 0 0.000000
387948.100000 3551525.319000 5.420000 255 207 0 0.000000
387949.350000 3551522.900002 5.570000 255 201 0 0.000000
387948.959999 3551524.238998 5.510000 255 204 0 0.000000
387948.580999 3551525.620003 5.431000 255 207 0 0.000000
387948.809999 3551527.540001 4.791000 255 231 0 0.000000
387949.371000 3551522.860001 5.980000 255 186 0 0.000000
387948.520000 3551523.870003 6.320000 255 172 0 0.000000
387948.389999 3551525.410004 6.030001 255 183 0 0.000000
387949.709999 3551523.040001 6.100000 255 180 0 0.000000
387948.750000 3551523.980003 6.521000 255 165 0 0.000000
387949.270000 3551526.018997 5.681000 255 197 0 0.000000
387949.780001 3551523.028999 6.471001 255 166 0 0.000000
387948.840000 3551523.980003 6.870001 255 151 0 0.000000
387948.389999 3551525.278999 6.870001 255 151 0 0.000000
387948.941000 3551523.988998 7.209999 255 138 0 0.000000
387948.580999 3551525.348999 7.120001 255 141 0 0.000000
387949.541000 3551524.360001 7.131001 255 141 0 0.000000
387948.530001 3551525.238998 7.591000 255 123 0 0.000000
387950.600000 3551523.430000 7.061001 255 144 0 0.000000
387949.570000 3551524.319000 7.521000 255 126 0 0.000000
387949.291000 3551525.760002 7.370001 255 132 0 0.000000
387950.950001 3551523.620003 7.181000 255 139 0 0.000000
387950.020000 3551524.588997 7.561001 255 124 0 0.000000
387949.320000 3551525.720001 7.750000 255 117 0 0.000000
387949.959999 3551524.488998 8.021000 255 106 0 0.000000
387949.511000 3551525.800003 8.021000 255 106 0 0.000000
387949.971001 3551524.448997 8.420000 255 91 0 0.000000
387949.379999 3551525.639000 8.530001 255 86 0 0.000000
387950.150999 3551524.510002 8.690001 255 80 0 0.000000
387950.471001 3551526.389000 8.100000 255 103 0 0.000000
387950.791000 3551524.910004 8.611000 255 83 0 0.000000
387950.371000 3551526.250000 8.591000 255 84 0 0.000000
387949.931000 3551524.110001 -1.790001 22 255 0 0.000000
387949.361000 3551523.639000 -0.700001 65 255 0 0.000000
387949.309999 3551523.540001 -0.180000 85 255 0 0.000000
387949.090000 3551523.319000 0.530001 112 255 0 0.000000
387948.879999 3551523.110001 1.209999 139 255 0 0.000000
387949.379999 3551525.190002 0.209999 100 255 0 0.000000
387949.481001 3551523.470001 1.091000 133 255 0 0.000000
387947.820000 3551523.959000 2.240999 178 255 0 0.000000
387950.129999 3551522.160004 1.420000 147 255 0 0.000000
387949.090000 3551523.128998 1.940001 167 255 0 0.000000
387948.000000 3551524.018997 2.530001 189 255 0 0.000000
387950.301001 3551522.220001 1.721001 158 255 0 0.000000
387949.340000 3551523.250000 2.160000 175 255 0 0.000000
387948.000000 3551523.959000 2.980000 207 255 0 0.000000
387947.431000 3551525.209000 3.061001 210 255 0 0.000000
387950.160999 3551522.080002 2.299999 180 255 0 0.000000
387949.721001 3551523.448997 2.260000 179 255 0 0.000000
387948.471001 3551524.230003 2.980000 207 255 0 0.000000
387947.740000 3551525.378998 3.209999 216 255 0 0.000000
387950.301001 3551522.110001 2.639999 194 255 0 0.000000
387950.250000 3551523.760002 2.230000 178 255 0 0.000000
387948.861000 3551524.448997 3.070000 210 255 0 0.000000
387947.309999 3551524.959000 4.091000 250 255 0 0.000000
387949.330999 3551523.069000 3.521000 228 255 0 0.000000
387948.000000 3551523.760002 4.311001 255 250 0 0.000000
387947.490000 3551525.028999 4.350000 255 249 0 0.000000
387948.121000 3551527.278999 3.280001 219 255 0 0.000000
387949.420000 3551523.069000 3.889999 243 255 0 0.000000
387948.371000 3551523.970001 4.410000 255 246 0 0.000000
387947.990000 3551525.348999 4.330999 255 249 0 0.000000
387949.121000 3551522.800003 4.600000 255 239 0 0.000000
387948.270000 3551523.819000 4.940001 255 226 0 0.000000
387948.100000 3551525.360001 4.670000 255 237 0 0.000000
387949.221001 3551522.819000 4.931000 255 226 0 0.000000
387948.559999 3551523.980003 5.100000 255 219 0 0.000000
387948.030001 3551525.230003 5.150999 255 218 0 0.000000
387949.650999 3551523.058998 5.000000 255 224 0 0.000000
387948.941000 3551524.190002 5.209999 255 216 0 0.000000
387948.150999 3551525.250000 5.500000 255 204 0 0.000000
387949.450001 3551522.860001 5.600000 255 200 0 0.000000
387949.059999 3551524.209000 5.530001 255 203 0 0.000000
387948.320000 3551525.319000 5.760000 255 194 0 0.000000
387948.820000 3551527.440002 4.889999 255 228 0 0.000000
387949.431000 3551522.800003 6.030001 255 183 0 0.000000
387948.590000 3551523.819000 6.361000 255 171 0 0.000000
387948.410999 3551525.308998 6.120001 255 180 0 0.000000
387949.000000 3551527.510002 5.181000 255 216 0 0.000000
387949.871000 3551523.050003 6.091000 255 181 0 0.000000
387948.709999 3551523.838997 6.681000 255 158 0 0.000000
387950.389999 3551523.338997 6.080999 255 181 0 0.000000
387948.871000 3551523.900002 6.959999 255 148 0 0.000000
387948.500000 3551525.250000 6.881001 255 151 0 0.000000
387950.990000 3551523.698997 6.000000 255 185 0 0.000000
387949.910999 3551524.588997 6.510000 255 165 0 0.000000
387948.611000 3551525.268997 7.201000 255 138 0 0.000000
387950.700001 3551523.459000 6.650999 255 160 0 0.000000
387949.611000 3551524.308998 7.170000 255 139 0 0.000000
387948.570000 3551525.168999 7.650999 255 121 0 0.000000
387950.809999 3551523.480003 6.990999 255 146 0 0.000000
387949.770000 3551524.370003 7.459999 255 128 0 0.000000
387949.389999 3551525.730003 7.400999 255 130 0 0.000000
387950.200001 3551524.620003 7.530001 255 125 0 0.000000
387949.389999 3551525.660004 7.811001 255 115 0 0.000000
387949.990000 3551524.410004 8.100000 255 103 0 0.000000
387949.511000 3551525.690002 8.120001 255 103 0 0.000000
387950.090000 3551524.418999 8.440001 255 90 0 0.000000
387949.441000 3551525.580002 8.591000 255 84 0 0.000000
387950.231001 3551524.470001 8.730000 255 79 0 0.000000
387949.639999 3551525.660004 8.850000 255 74 0 0.000000
387950.910999 3551524.900002 8.620001 255 83 0 0.000000
387950.379999 3551526.160004 8.681000 255 80 0 0.000000
387950.139999 3551524.080002 -1.709000 25 255 0 0.000000
387949.209999 3551523.360001 -0.259001 81 255 0 0.000000
387948.959999 3551523.000000 1.420000 147 255 0 0.000000
387949.559999 3551525.150002 0.330999 104 255 0 0.000000
387950.160999 3551522.080002 1.201000 138 255 0 0.000000
387949.200001 3551523.110001 1.650999 156 255 0 0.000000
387947.840000 3551523.800003 2.500000 189 255 0 0.000000
387950.320000 3551522.128998 1.510000 150 255 0 0.000000
387949.200001 3551523.050003 2.100000 173 255 0 0.000000
387948.240000 3551524.028999 2.561001 191 255 0 0.000000
387950.000000 3551521.870003 2.280001 180 255 0 0.000000
387949.670000 3551523.308998 2.120001 174 255 0 0.000000
387949.191000 3551524.660004 2.111000 173 255 0 0.000000
387947.709999 3551525.250000 3.070000 210 255 0 0.000000
387950.121000 3551521.889000 2.620001 193 255 0 0.000000
387950.100000 3551523.550003 2.181000 176 255 0 0.000000
387948.809999 3551524.319000 2.931000 205 255 0 0.000000
387948.000000 3551525.400002 3.240999 217 255 0 0.000000
387950.191000 3551521.889000 2.990999 207 255 0 0.000000
387950.709999 3551523.918999 2.061001 171 255 0 0.000000
387947.871000 3551523.558998 4.250000 255 252 0 0.000000
387947.441000 3551524.900002 4.201000 255 255 0 0.000000
387948.181000 3551527.238998 3.021000 209 255 0 0.000000
387949.511000 3551523.028999 3.620001 232 255 0 0.000000
387948.511000 3551523.959000 4.111000 251 255 0 0.000000
387948.121000 3551525.348999 4.010000 247 255 0 0.000000
387947.820000 3551526.848999 3.830999 240 255 0 0.000000
387949.291000 3551522.819000 4.260000 255 252 0 0.000000
387948.291000 3551523.738998 4.740999 255 234 0 0.000000
387948.340000 3551525.448997 4.260000 255 252 0 0.000000
387949.121000 3551522.650002 4.850000 255 229 0 0.000000
387950.059999 3551524.970001 3.570000 230 255 0 0.000000
387948.111000 3551525.198997 4.900999 255 228 0 0.000000
387948.910999 3551524.069000 5.061001 255 221 0 0.000000
387948.129999 3551525.139000 5.320000 255 211 0 0.000000
387948.400999 3551527.080002 4.650999 255 237 0 0.000000
387949.820000 3551523.018997 5.091000 255 220 0 0.000000
387948.910999 3551524.010002 5.471001 255 205 0 0.000000
387948.511000 3551525.370003 5.400999 255 208 0 0.000000
387949.150999 3551527.610001 4.389999 255 247 0 0.000000
387949.541000 3551522.778999 5.760000 255 194 0 0.000000
387948.780001 3551523.848999 6.021000 255 184 0 0.000000
387948.639999 3551525.400002 5.730000 255 195 0 0.000000
387949.160999 3551527.540001 4.841000 255 230 0 0.000000
387950.129999 3551523.128998 5.681000 255 197 0 0.000000
387948.959999 3551523.918999 6.280001 255 174 0 0.000000
387948.200001 3551525.000000 6.530001 255 164 0 0.000000
387949.051001 3551527.370003 5.381001 255 209 0 0.000000
387950.410999 3551523.260002 5.870001 255 189 0 0.000000
387948.931000 3551523.838997 6.730000 255 157 0 0.000000
387948.791000 3551525.378998 6.440001 255 168 0 0.000000
387950.490000 3551523.268997 6.230000 255 176 0 0.000000
387949.020000 3551523.838997 7.070000 255 143 0 0.000000
387948.740000 3551525.268997 6.920000 255 149 0 0.000000
387951.090000 3551523.620003 6.160000 255 178 0 0.000000
387950.129999 3551524.588997 6.561001 255 163 0 0.000000
387948.570000 3551525.080002 7.459999 255 128 0 0.000000
387951.129999 3551523.598999 6.549999 255 163 0 0.000000
387949.570000 3551524.128998 7.440001 255 129 0 0.000000
387948.780001 3551525.168999 7.709999 255 118 0 0.000000
387950.100000 3551524.448997 7.431000 255 129 0 0.000000
387949.000000 3551525.278999 7.940001 255 109 0 0.000000
387950.041000 3551524.348999 7.881001 255 112 0 0.000000
387949.270000 3551525.418999 8.131001 255 102 0 0.000000
387950.051001 3551524.300003 8.280001 255 96 0 0.000000
387949.530001 3551525.550003 8.330999 255 94 0 0.000000
387950.270000 3551524.410004 8.521000 255 87 0 0.000000
387949.700001 3551525.620003 8.611000 255 83 0 0.000000
387951.011000 3551524.870003 8.361000 255 93 0 0.000000
387949.780001 3551525.620003 8.951000 255 70 0 0.000000
387950.481001 3551526.080002 8.820000 255 75 0 0.000000
387950.600000 3551524.278999 -2.360001 0 255 0 0.000000
387948.770000 3551522.930000 0.021000 92 255 0 0.000000
387949.261000 3551523.220001 0.000000 91 255 0 0.000000
387948.611000 3551522.639000 1.600000 154 255 0 0.000000
387949.639999 3551521.620003 1.541000 151 255 0 0.000000
387948.959999 3551522.819000 1.721001 158 255 0 0.000000
387947.900999 3551523.730003 2.271000 180 255 0 0.000000
387947.170000 3551526.620003 2.000000 169 255 0 0.000000
387950.250000 3551521.959000 1.410000 146 255 0 0.000000
387949.170000 3551522.910004 1.971001 168 255 0 0.000000
387948.150999 3551523.848999 2.490999 188 255 0 0.000000
387947.240000 3551526.598999 2.400999 184 255 0 0.000000
387950.431000 3551522.028999 1.709999 158 255 0 0.000000
387949.420000 3551523.018997 2.201000 177 255 0 0.000000
387949.240000 3551524.580002 1.900999 166 255 0 0.000000
387950.200001 3551521.830002 2.389999 184 255 0 0.000000
387949.959999 3551523.338997 2.150999 174 255 0 0.000000
387949.379999 3551524.620003 2.230000 178 255 0 0.000000
387947.770000 3551525.110001 3.291000 219 255 0 0.000000
387950.150999 3551521.750000 2.889999 204 255 0 0.000000
387950.520000 3551523.660004 2.100000 173 255 0 0.000000
387947.840000 3551523.418999 4.150999 252 255 0 0.000000
387947.530001 3551524.838997 3.990999 246 255 0 0.000000
387948.191000 3551527.120003 2.870001 203 255 0 0.000000
387951.051001 3551523.970001 2.061001 171 255 0 0.000000
387948.090000 3551523.550003 4.330999 255 249 0 0.000000
387947.731001 3551524.930000 4.230000 255 254 0 0.000000
387947.160999 3551526.190002 4.299999 255 251 0 0.000000
387949.400999 3551522.778999 4.010000 247 255 0 0.000000
387947.481001 3551524.668999 4.889999 255 228 0 0.000000
387949.139999 3551522.550003 4.681000 255 236 0 0.000000
387948.459999 3551523.680000 4.870001 255 228 0 0.000000
387948.691000 3551525.528999 4.230000 255 254 0 0.000000
387949.340000 3551522.628998 4.920000 255 227 0 0.000000
387949.590000 3551524.448997 4.280001 255 252 0 0.000000
387947.920000 3551524.870003 5.350000 255 210 0 0.000000
387948.291000 3551526.878998 4.570000 255 240 0 0.000000
387949.780001 3551522.870003 4.990999 255 224 0 0.000000
387948.931000 3551523.900002 5.320000 255 211 0 0.000000
387948.511000 3551525.250000 5.271000 255 213 0 0.000000
387948.721001 3551527.150002 4.639999 255 237 0 0.000000
387950.051001 3551523.010002 5.190001 255 216 0 0.000000
387949.111000 3551523.980003 5.591000 255 201 0 0.000000
387948.861000 3551525.448997 5.389999 255 208 0 0.000000
387949.121000 3551527.389000 4.730000 255 234 0 0.000000
387950.100000 3551522.988998 5.561001 255 201 0 0.000000
387949.270000 3551524.028999 5.870001 255 189 0 0.000000
387948.121000 3551524.819000 6.451000 255 167 0 0.000000
387949.090000 3551527.290001 5.181000 255 216 0 0.000000
387950.261000 3551523.040001 5.861000 255 190 0 0.000000
387949.270000 3551523.970001 6.299999 255 173 0 0.000000
387948.379999 3551524.948997 6.660000 255 159 0 0.000000
387950.459999 3551523.128998 6.111000 255 180 0 0.000000
387949.250000 3551523.900002 6.730000 255 157 0 0.000000
387948.920000 3551525.290001 6.611000 255 161 0 0.000000
387949.410999 3551527.389000 5.791000 255 193 0 0.000000
387949.681000 3551524.150002 6.791000 255 154 0 0.000000
387948.721001 3551525.080002 7.201000 255 138 0 0.000000
387949.280001 3551527.220001 6.320000 255 172 0 0.000000
387949.700001 3551524.110001 7.201000 255 138 0 0.000000
387948.721001 3551525.010002 7.620001 255 122 0 0.000000
387949.590000 3551527.389000 6.500000 255 166 0 0.000000
387949.761000 3551524.088997 7.561001 255 124 0 0.000000
387949.020000 3551525.180000 7.780001 255 115 0 0.000000
387949.490000 3551527.238998 7.010000 255 145 0 0.000000
387949.990000 3551524.198997 7.780001 255 115 0 0.000000
387949.379999 3551525.378998 7.900999 255 111 0 0.000000
387950.051001 3551524.190002 8.139999 255 102 0 0.000000
387949.600000 3551525.488998 8.139999 255 102 0 0.000000
387950.231001 3551524.260002 8.410000 255 91 0 0.000000
387949.520000 3551525.360001 8.611000 255 83 0 0.000000
387950.900999 3551524.680000 8.299999 255 95 0 0.000000
387949.681000 3551525.418999 8.889999 255 73 0 0.000000
387951.051001 3551524.738998 8.591000 255 84 0 0.000000
387950.481001 3551525.959000 8.681000 255 80 0 0.000000
387950.660999 3551524.168999 -2.459000 0 251 3 0.000000
387950.160999 3551523.750000 -1.430000 36 255 0 0.000000
387949.280001 3551523.069000 -0.040001 90 255 0 0.000000
387948.629999 3551522.500000 1.549999 151 255 0 0.000000
387948.801001 3551522.558998 1.841000 163 255 0 0.000000
387948.200001 3551523.800003 1.940001 167 255 0 0.000000
387947.261000 3551526.550003 1.861000 163 255 0 0.000000
387950.250000 3551521.808998 1.389999 145 255 0 0.000000
387949.200001 3551522.778999 1.931000 166 255 0 0.000000
387948.280001 3551523.790001 2.341000 182 255 0 0.000000
387946.820000 3551526.080002 2.811001 201 255 0 0.000000
387951.111000 3551522.319000 1.041000 132 255 0 0.000000
387949.500000 3551522.930000 2.091000 172 255 0 0.000000
387948.551001 3551523.930000 2.521000 189 255 0 0.000000
387947.910999 3551525.150002 2.660000 195 255 0 0.000000
387950.361000 3551521.778999 2.201000 177 255 0 0.000000
387949.990000 3551523.209000 2.080999 172 255 0 0.000000
387949.389999 3551524.480003 2.170000 176 255 0 0.000000
387947.621000 3551524.848999 3.389999 223 255 0 0.000000
387946.861000 3551525.959000 3.650999 233 255 0 0.000000
387950.280001 3551521.680000 2.740999 198 255 0 0.000000
387950.379999 3551523.418999 2.190001 177 255 0 0.000000
387948.450001 3551523.720001 3.541000 229 255 0 0.000000
387948.070000 3551525.110001 3.440001 225 255 0 0.000000
387948.129999 3551526.918999 2.900999 204 255 0 0.000000
387951.240000 3551523.948997 1.850000 163 255 0 0.000000
387948.059999 3551523.370003 4.330999 255 249 0 0.000000
387947.889999 3551524.910004 4.041000 249 255 0 0.000000
387947.231001 3551526.098999 4.201000 255 255 0 0.000000
387951.280001 3551523.918999 2.280001 180 255 0 0.000000
387948.330999 3551523.500000 4.530001 255 242 0 0.000000
387947.490000 3551524.528999 4.861000 255 229 0 0.000000
387947.301001 3551526.069000 4.591000 255 240 0 0.000000
387949.170000 3551522.418999 4.631001 255 238 0 0.000000
387950.530001 3551525.040001 2.959999 207 255 0 0.000000
387948.761000 3551525.430000 4.131001 252 255 0 0.000000
387947.361000 3551526.040001 4.971001 255 225 0 0.000000
387950.041000 3551522.959000 4.280001 255 252 0 0.000000
387950.080999 3551524.650002 3.820000 240 255 0 0.000000
387948.000000 3551524.778999 5.250000 255 214 0 0.000000
387947.350000 3551525.959000 5.410000 255 207 0 0.000000
387950.000000 3551522.878998 4.760000 255 233 0 0.000000
387948.861000 3551523.709000 5.341000 255 210 0 0.000000
387948.471001 3551525.069000 5.260000 255 213 0 0.000000
387947.551001 3551526.050003 5.650999 255 198 0 0.000000
387950.139999 3551522.918999 5.080999 255 220 0 0.000000
387948.871000 3551523.660004 5.760000 255 194 0 0.000000
387948.340000 3551524.900002 5.820000 255 192 0 0.000000
387948.070000 3551526.389000 5.620001 255 199 0 0.000000
387950.000000 3551522.778999 5.620001 255 199 0 0.000000
387949.250000 3551523.870003 5.861000 255 190 0 0.000000
387949.129999 3551527.180000 5.111000 255 219 0 0.000000
387950.280001 3551522.918999 5.799999 255 192 0 0.000000
387949.191000 3551523.768997 6.330999 255 171 0 0.000000
387948.400999 3551524.819000 6.600000 255 161 0 0.000000
387950.920000 3551523.300003 5.701000 255 196 0 0.000000
387949.471001 3551523.918999 6.510000 255 165 0 0.000000
387948.471001 3551524.808998 6.959999 255 148 0 0.000000
387949.389999 3551527.238998 5.760000 255 194 0 0.000000
387950.691000 3551523.088997 6.311001 255 173 0 0.000000
387949.530001 3551523.900002 6.881001 255 151 0 0.000000
387948.750000 3551524.959000 7.150999 255 140 0 0.000000
387949.681000 3551523.948997 7.170000 255 139 0 0.000000
387948.700001 3551524.848999 7.600000 255 123 0 0.000000
387949.520000 3551527.190002 6.521000 255 165 0 0.000000
387949.691000 3551523.900002 7.591000 255 123 0 0.000000
387949.090000 3551525.088997 7.701000 255 118 0 0.000000
387949.471001 3551527.080002 6.990999 255 146 0 0.000000
387949.931000 3551524.018997 7.791000 255 115 0 0.000000
387949.330999 3551525.209000 7.900999 255 111 0 0.000000
387949.490000 3551527.018997 7.381001 255 131 0 0.000000
387950.170000 3551524.139000 8.010000 255 106 0 0.000000
387949.681000 3551525.410004 8.041000 255 106 0 0.000000
387950.820000 3551524.540001 7.931000 255 109 0 0.000000
387949.981001 3551525.569000 8.221001 255 98 0 0.000000
387950.971001 3551524.598999 8.209999 255 99 0 0.000000
387949.590000 3551525.220001 8.920000 255 71 0 0.000000
387951.090000 3551524.620003 8.541000 255 86 0 0.000000
387949.850000 3551525.360001 9.120001 255 64 0 0.000000
387949.280001 3551523.110001 -0.990000 53 255 0 0.000000
387948.820000 3551522.730003 -0.049000 89 255 0 0.000000
387949.231001 3551522.948997 0.030001 92 255 0 0.000000
387948.629999 3551522.410004 1.570000 152 255 0 0.000000
387949.580999 3551524.800003 0.120001 96 255 0 0.000000
387948.840000 3551522.488998 1.830999 163 255 0 0.000000
387948.231001 3551523.730003 1.940001 167 255 0 0.000000
387947.291000 3551526.470001 1.881001 164 255 0 0.000000
387950.309999 3551521.768997 1.350000 144 255 0 0.000000
387949.170000 3551522.668999 1.971001 168 255 0 0.000000
387948.330999 3551523.738998 2.311001 181 255 0 0.000000
387946.791000 3551525.970001 2.841000 201 255 0 0.000000
387951.129999 3551522.250000 1.041000 132 255 0 0.000000
387949.520000 3551522.848999 2.091000 172 255 0 0.000000
387948.820000 3551524.028999 2.291000 180 255 0 0.000000
387947.840000 3551525.000000 2.750000 198 255 0 0.000000
387948.330999 3551527.168999 1.760000 160 255 0 0.000000
387950.340000 3551521.680000 2.250000 179 255 0 0.000000
387949.950001 3551523.088997 2.150999 174 255 0 0.000000
387949.431000 3551524.410004 2.170000 176 255 0 0.000000
387947.611000 3551524.738998 3.440001 225 255 0 0.000000
387946.910999 3551525.900002 3.639999 233 255 0 0.000000
387950.361000 3551521.650002 2.681000 195 255 0 0.000000
387950.309999 3551523.278999 2.260000 179 255 0 0.000000
387948.400999 3551523.588997 3.591000 231 255 0 0.000000
387948.080999 3551525.028999 3.431000 225 255 0 0.000000
387951.191000 3551523.830002 1.920000 166 255 0 0.000000
387948.530001 3551523.628998 3.910000 243 255 0 0.000000
387947.910999 3551524.830002 4.041000 249 255 0 0.000000
387947.270000 3551526.040001 4.181000 254 255 0 0.000000
387949.350000 3551522.510002 4.049999 249 255 0 0.000000
387948.361000 3551523.440002 4.510000 255 243 0 0.000000
387947.570000 3551524.488998 4.799999 255 231 0 0.000000
387947.320000 3551526.000000 4.570000 255 240 0 0.000000
387949.270000 3551522.400002 4.549999 255 241 0 0.000000
387950.520000 3551524.948997 2.980000 207 255 0 0.000000
387947.400999 3551525.988998 4.940001 255 226 0 0.000000
387950.080999 3551522.900002 4.271000 255 252 0 0.000000
387950.121000 3551524.598999 3.799999 239 255 0 0.000000
387947.721001 3551524.470001 5.530001 255 203 0 0.000000
387947.420000 3551525.918999 5.361000 255 210 0 0.000000
387950.330999 3551523.018997 4.490999 255 243 0 0.000000
387949.000000 3551523.720001 5.230000 255 215 0 0.000000
387949.580999 3551525.838997 4.280001 255 252 0 0.000000
387947.551001 3551525.959000 5.670000 255 198 0 0.000000
387950.129999 3551522.830002 5.100000 255 219 0 0.000000
387948.879999 3551523.580002 5.760000 255 194 0 0.000000
387948.420000 3551524.878998 5.760000 255 194 0 0.000000
387949.111000 3551527.139000 4.701000 255 235 0 0.000000
387950.100000 3551522.760002 5.541000 255 203 0 0.000000
387949.270000 3551523.800003 5.850000 255 190 0 0.000000
387949.070000 3551525.308998 5.611000 255 200 0 0.000000
387948.700001 3551526.738998 5.500000 255 204 0 0.000000
387950.129999 3551522.730003 5.940001 255 187 0 0.000000
387949.231001 3551523.709000 6.299999 255 173 0 0.000000
387948.580999 3551524.870003 6.451000 255 167 0 0.000000
387947.990000 3551526.088997 6.549999 255 163 0 0.000000
387950.941000 3551523.220001 5.681000 255 197 0 0.000000
387949.530001 3551523.870003 6.459999 255 167 0 0.000000
387948.551001 3551524.778999 6.900999 255 150 0 0.000000
387949.371000 3551527.128998 5.780001 255 193 0 0.000000
