387975.204000 3551518.040001 3.032000 209 255 0 0.000000
387974.220000 3551517.648003 2.778999 199 255 0 0.000000
387972.257000 3551517.115997 2.813000 201 255 0 0.000000
387971.110000 3551516.217003 1.576000 153 255 0 0.000000
387977.225000 3551516.485001 -2.167000 7 255 0 0.000000
387976.145000 3551516.203003 -2.124001 9 255 0 0.000000
387975.120000 3551517.682999 1.702999 157 255 0 0.000000
387974.143000 3551517.709999 2.350000 183 255 0 0.000000
387973.122000 3551517.193001 1.848000 163 255 0 0.000000
387972.295000 3551517.875999 3.826000 240 255 0 0.000000
387970.973000 3551516.140999 0.868000 125 255 0 0.000000
387977.250000 3551515.391998 -5.263000 0 142 112 0.000000
387976.073000 3551516.514999 -2.070000 11 255 0 0.000000
387975.055000 3551517.866997 1.530001 151 255 0 0.000000
387974.067000 3551517.779999 1.948000 167 255 0 0.000000
387972.898000 3551516.289001 -0.615999 68 255 0 0.000000
387972.226000 3551518.040001 3.650000 233 255 0 0.000000
387970.941000 3551516.492996 1.037001 132 255 0 0.000000
387977.177000 3551515.593002 -5.518999 0 132 122 0.000000
387975.987000 3551517.804001 0.162001 97 255 0 0.000000
387973.947000 3551517.459000 0.658001 117 255 0 0.000000
387972.829000 3551516.547997 -0.684000 65 255 0 0.000000
387972.104000 3551517.966003 2.938000 205 255 0 0.000000
387970.860000 3551516.682999 0.843000 124 255 0 0.000000
387975.921000 3551517.848000 -0.368000 77 255 0 0.000000
387974.894000 3551517.751999 0.059999 94 255 0 0.000000
387973.903000 3551517.925003 1.082001 133 255 0 0.000000
387972.821000 3551517.178001 0.069000 94 255 0 0.000000
387971.879000 3551517.393997 1.153000 136 255 0 0.000000
387970.829000 3551517.051003 1.039000 132 255 0 0.000000
387974.833000 3551518.139000 0.299999 103 255 0 0.000000
387973.846000 3551518.255997 1.204000 138 255 0 0.000000
387972.757000 3551517.462997 0.069000 94 255 0 0.000000
387971.630000 3551516.773003 -0.799000 60 255 0 0.000000
387970.874000 3551517.716003 1.862000 163 255 0 0.000000
387974.753000 3551518.164001 -0.274000 81 255 0 0.000000
387973.806000 3551518.721001 1.650999 156 255 0 0.000000
387971.789000 3551518.064003 1.424000 147 255 0 0.000000
387970.789000 3551517.864998 1.610001 154 255 0 0.000000
387974.618000 3551517.290001 -2.969000 0 231 23 0.000000
387972.677000 3551518.253998 0.615999 115 255 0 0.000000
387971.725000 3551518.292999 1.340000 143 255 0 0.000000
387972.634000 3551518.622002 0.844999 124 255 0 0.000000
387971.482000 3551517.751999 -0.490000 72 255 0 0.000000
387970.615000 3551518.165001 1.094999 134 255 0 0.000000
387972.570000 3551518.867996 0.796000 122 255 0 0.000000
387971.478000 3551518.262001 0.049999 93 255 0 0.000000
387970.560000 3551518.428001 1.087999 133 255 0 0.000000
387971.436000 3551518.617996 0.230000 100 255 0 0.000000
387970.505000 3551518.709999 1.107000 134 255 0 0.000000
387971.361000 3551518.820000 0.070000 94 255 0 0.000000
387970.367000 3551518.702003 0.471001 109 255 0 0.000000
387971.289000 3551519.033997 -0.062000 89 255 0 0.000000
387970.321000 3551518.998001 0.544001 112 255 0 0.000000
387971.632000 3551516.612999 -7.505001 0 55 199 0.000000
387970.275000 3551519.305000 0.622999 115 255 0 0.000000
387971.565000 3551516.947998 -7.451000 0 57 197 0.000000
387970.086000 3551519.167000 -0.361000 77 255 0 0.000000
387971.484000 3551517.218002 -7.562000 0 53 201 0.000000
387973.812000 3551518.257004 -7.373001 0 60 194 0.000000
387973.734000 3551518.543999 -7.431000 0 58 196 0.000000
387972.528000 3551518.135002 -7.650002 0 50 204 0.000000
387970.152000 3551517.556999 -7.432999 0 58 196 0.000000
387973.655000 3551518.835999 -7.487000 0 56 198 0.000000
387972.535000 3551518.892998 -6.428001 0 97 157 0.000000
387970.064000 3551517.819000 -7.577999 0 52 202 0.000000
387973.580000 3551519.157997 -7.446999 0 57 197 0.000000
387972.478000 3551519.276001 -6.196999 0 106 148 0.000000
387971.282000 3551518.803001 -6.626999 0 89 165 0.000000
387972.402000 3551519.568001 -6.233002 0 104 150 0.000000
387971.174000 3551518.973999 -7.014000 0 74 180 0.000000
387971.058000 3551519.094002 -7.511002 0 55 199 0.000000
387971.037000 3551519.573997 -6.993000 0 75 179 0.000000
387973.568000 3551508.537003 0.325001 104 255 0 0.000000
387973.523000 3551509.027000 0.579000 114 255 0 0.000000
387972.400000 3551508.814003 0.749001 121 255 0 0.000000
387974.558000 3551509.299004 0.004000 91 255 0 0.000000
387973.431000 3551509.014999 0.066000 94 255 0 0.000000
387972.367000 3551509.324997 1.027000 131 255 0 0.000000
387977.918000 3551509.372002 -1.962999 15 255 0 0.000000
387976.665000 3551512.218002 3.115000 213 255 0 0.000000
387974.490000 3551509.636002 0.007999 91 255 0 0.000000
387973.420000 3551509.902000 0.915001 127 255 0 0.000000
387972.315000 3551509.695999 1.089001 133 255 0 0.000000
387977.738000 3551511.072998 0.271000 102 255 0 0.000000
387976.607000 3551512.167999 2.549000 190 255 0 0.000000
387975.540000 3551510.417000 0.230000 100 255 0 0.000000
387974.426000 3551509.990997 0.054001 94 255 0 0.000000
387973.328000 3551509.898003 0.412001 107 255 0 0.000000
387972.315000 3551510.424004 1.721001 158 255 0 0.000000
387977.663000 3551511.369003 0.242001 100 255 0 0.000000
387976.540000 3551512.410004 2.455000 186 255 0 0.000000
387975.492000 3551511.950996 2.195999 177 255 0 0.000000
387974.359000 3551510.267998 -0.014000 91 255 0 0.000000
387973.259000 3551510.138000 0.287001 103 255 0 0.000000
387972.243000 3551510.621002 1.545000 151 255 0 0.000000
387977.593000 3551511.579002 0.055000 94 255 0 0.000000
387976.473000 3551512.608002 2.278000 180 255 0 0.000000
387975.424000 3551512.177002 2.061001 171 255 0 0.000000
387974.304000 3551510.779999 0.285000 103 255 0 0.000000
387973.240000 3551510.877998 0.945999 128 255 0 0.000000
387972.173000 3551510.844002 1.393000 145 255 0 0.000000
387977.524000 3551511.827003 -0.048000 89 255 0 0.000000
387976.405000 3551512.935997 2.337999 182 255 0 0.000000
387975.357000 3551512.313004 1.799999 161 255 0 0.000000
387974.242000 3551511.091003 0.289000 103 255 0 0.000000
387973.162000 3551511.002998 0.660000 117 255 0 0.000000
387972.119000 3551511.141998 1.389000 145 255 0 0.000000
387977.438000 3551512.280998 0.194000 99 255 0 0.000000
387976.335000 3551513.321999 2.487000 188 255 0 0.000000
387975.302000 3551513.094002 2.598000 192 255 0 0.000000
387974.153000 3551511.070000 -0.275000 81 255 0 0.000000
387973.045000 3551510.830002 -0.150000 85 255 0 0.000000
387972.021000 3551511.194000 0.962000 129 255 0 0.000000
387977.379000 3551512.336998 -0.252001 82 255 0 0.000000
387975.232000 3551513.155998 2.204000 177 255 0 0.000000
387974.171000 3551512.526001 1.642000 155 255 0 0.000000
387973.089000 3551512.042999 1.341999 143 255 0 0.000000
387972.048000 3551512.024002 1.820000 162 255 0 0.000000
387977.366000 3551511.587997 -2.135000 8 255 0 0.000000
387976.202000 3551513.709999 2.136000 174 255 0 0.000000
387975.179000 3551513.850998 2.886999 204 255 0 0.000000
387974.031000 3551511.838997 -0.051001 89 255 0 0.000000
387973.019000 3551512.278999 1.216000 139 255 0 0.000000
387971.984000 3551512.288002 1.745001 159 255 0 0.000000
387977.258000 3551512.420998 -1.222000 44 255 0 0.000000
387976.136000 3551513.816002 1.804001 162 255 0 0.000000
387975.099000 3551513.653999 2.040001 171 255 0 0.000000
387974.026000 3551512.887001 1.222000 139 255 0 0.000000
387973.029000 3551513.138000 2.166000 175 255 0 0.000000
387971.848000 3551512.098999 0.924999 127 255 0 0.000000
387977.072000 3551514.766998 2.476999 187 255 0 0.000000
387976.064000 3551514.694000 2.858999 202 255 0 0.000000
387975.046000 3551514.217003 2.524000 189 255 0 0.000000
387973.949000 3551513.002998 0.907000 127 255 0 0.000000
387972.839000 3551512.391998 0.377001 106 255 0 0.000000
387971.861000 3551512.800003 1.606001 154 255 0 0.000000
387977.006000 3551514.995003 2.375999 183 255 0 0.000000
387976.002000 3551514.179001 1.413000 146 255 0 0.000000
387975.007000 3551515.066002 3.535000 228 255 0 0.000000
387973.880000 3551513.225998 0.774000 121 255 0 0.000000
387972.878000 3551513.438004 1.674999 157 255 0 0.000000
387971.814000 3551513.139999 1.684000 157 255 0 0.000000
387977.008000 3551513.799004 -0.393999 76 255 0 0.000000
387975.940000 3551509.710999 -7.365002 0 60 194 0.000000
387974.945000 3551515.356003 3.547001 229 255 0 0.000000
387973.947000 3551514.955002 3.329000 221 255 0 0.000000
387972.805000 3551513.632004 1.488001 149 255 0 0.000000
387971.659000 3551512.899002 0.736000 120 255 0 0.000000
387975.864000 3551513.482002 -0.986000 53 255 0 0.000000
387974.858000 3551515.123001 2.612000 192 255 0 0.000000
387973.884000 3551515.182999 3.240000 217 255 0 0.000000
387972.842000 3551514.598000 2.698000 196 255 0 0.000000
387971.587000 3551513.109001 0.580999 114 255 0 0.000000
387976.827000 3551515.196999 1.135000 136 255 0 0.000000
387975.800000 3551515.238998 1.764999 160 255 0 0.000000
387974.811000 3551515.671997 3.115000 213 255 0 0.000000
387973.850000 3551515.697998 3.680000 234 255 0 0.000000
387972.816000 3551515.092003 3.087000 211 255 0 0.000000
387971.556000 3551513.532997 0.809000 123 255 0 0.000000
387976.735000 3551515.999001 2.128000 174 255 0 0.000000
387975.733000 3551515.707001 2.108999 173 255 0 0.000000
387974.751000 3551515.987999 3.184000 215 255 0 0.000000
387973.661000 3551514.730003 1.355000 144 255 0 0.000000
387972.737000 3551515.223000 2.805000 200 255 0 0.000000
387971.497000 3551513.829002 0.798000 122 255 0 0.000000
387976.667000 3551516.254997 2.083000 172 255 0 0.000000
387975.667000 3551515.911003 1.962000 168 255 0 0.000000
387974.720000 3551516.763000 4.146000 252 255 0 0.000000
387973.705000 3551515.976997 3.172001 215 255 0 0.000000
387972.640000 3551515.237999 2.316999 181 255 0 0.000000
387971.486000 3551514.337997 1.198000 138 255 0 0.000000
387977.755000 3551514.917999 -1.743999 23 255 0 0.000000
387976.598000 3551516.589996 2.211000 177 255 0 0.000000
387975.602000 3551516.084000 1.767000 160 255 0 0.000000
387974.654000 3551516.893997 3.902000 243 255 0 0.000000
387973.662000 3551516.362000 3.403999 224 255 0 0.000000
387972.606000 3551515.634003 2.554001 190 255 0 0.000000
387971.693000 3551515.878998 3.551001 229 255 0 0.000000
387977.674000 3551515.248001 -1.698000 26 255 0 0.000000
387976.532000 3551516.790001 2.046000 171 255 0 0.000000
387975.536000 3551516.467003 1.958000 167 255 0 0.000000
387974.427000 3551514.755997 -0.854000 58 255 0 0.000000
387973.476000 3551515.575996 1.330000 143 255 0 0.000000
387972.554000 3551515.971001 2.645000 194 255 0 0.000000
387971.395000 3551515.016998 1.382999 145 255 0 0.000000
387977.676000 3551514.580002 -3.715000 0 202 52 0.000000
387976.464000 3551517.089996 2.103001 173 255 0 0.000000
387975.466000 3551516.481003 1.436001 147 255 0 0.000000
387974.499000 3551516.936996 2.923000 205 255 0 0.000000
387973.451000 3551516.124001 1.868000 164 255 0 0.000000
387972.551000 3551516.539001 3.231001 217 255 0 0.000000
387977.593000 3551514.935997 -3.610001 0 206 48 0.000000
387976.418000 3551516.589996 0.503000 111 255 0 0.000000
387975.340000 3551514.404999 -3.395000 0 215 39 0.000000
387974.421000 3551516.973999 2.459999 187 255 0 0.000000
387973.480000 3551517.097000 3.263000 218 255 0 0.000000
387972.419000 3551516.363998 2.361000 183 255 0 0.000000
387977.584000 3551514.285004 -5.690001 0 125 129 0.000000
387976.350000 3551516.681000 0.077000 94 255 0 0.000000
387975.355000 3551517.803001 3.023001 209 255 0 0.000000
387974.089000 3551513.959000 -4.320000 0 179 75 0.000000
387973.400000 3551517.221001 2.948999 206 255 0 0.000000
387972.401000 3551516.876999 2.816000 201 255 0 0.000000
387977.381000 3551516.261002 -2.083000 11 255 0 0.000000
387976.280000 3551516.960999 0.073000 94 255 0 0.000000
387975.292000 3551518.002998 2.893000 204 255 0 0.000000
387974.310000 3551517.676003 2.785000 199 255 0 0.000000
387973.289000 3551517.084000 2.132999 174 255 0 0.000000
387972.339000 3551517.093002 2.724001 197 255 0 0.000000
387971.192000 3551516.203003 1.516001 151 255 0 0.000000
387977.306000 3551516.542999 -2.099001 10 255 0 0.000000
387976.228000 3551516.237000 -2.108000 9 255 0 0.000000
387975.191000 3551517.233002 0.684000 118 255 0 0.000000
387974.237000 3551517.783997 2.459999 187 255 0 0.000000
387973.209000 3551517.206001 1.832001 163 255 0 0.000000
387972.385000 3551517.889000 3.813000 240 255 0 0.000000
387971.088000 3551516.274002 1.103001 134 255 0 0.000000
387977.327000 3551515.387001 -5.365000 0 138 116 0.000000
387976.153000 3551516.514999 -2.153999 8 255 0 0.000000
387975.114000 3551517.269997 0.150000 97 255 0 0.000000
387974.153000 3551517.823997 1.965000 168 255 0 0.000000
387973.048000 3551516.791000 0.370001 106 255 0 0.000000
387972.299000 3551517.996002 3.487000 227 255 0 0.000000
387970.995000 3551516.411003 0.799999 122 255 0 0.000000
387976.072000 3551517.817001 0.120001 96 255 0 0.000000
387975.047000 3551517.502998 0.061001 94 255 0 0.000000
387974.075000 3551517.905998 1.573999 153 255 0 0.000000
387972.913000 3551516.571999 -0.683001 65 255 0 0.000000
387972.202000 3551518.024002 3.017000 208 255 0 0.000000
387970.955000 3551516.734001 0.912001 127 255 0 0.000000
387976.004000 3551517.851997 -0.436001 74 255 0 0.000000
387974.980000 3551517.796997 0.087999 94 255 0 0.000000
387974.010000 3551518.151001 1.511999 150 255 0 0.000000
387972.908000 3551517.230003 0.117001 96 255 0 0.000000
387970.922000 3551517.111000 1.111000 135 255 0 0.000000
387974.916000 3551518.114998 0.184000 98 255 0 0.000000
387973.733000 3551516.459999 -2.882000 0 234 20 0.000000
387972.840000 3551517.468002 0.028000 92 255 0 0.000000
387971.714000 3551516.794998 -0.799999 60 255 0 0.000000
387970.891000 3551517.469002 1.292999 142 255 0 0.000000
387974.837000 3551518.209999 -0.242001 82 255 0 0.000000
387973.897000 3551518.788002 1.735001 159 255 0 0.000000
387972.833000 3551518.084000 0.775000 121 255 0 0.000000
387971.628000 3551516.981003 -1.030001 51 255 0 0.000000
387970.880000 3551517.914001 1.656000 156 255 0 0.000000
387974.698000 3551517.355003 -2.903000 0 234 20 0.000000
387973.830000 3551519.014000 1.646000 155 255 0 0.000000
387972.767000 3551518.321999 0.701000 118 255 0 0.000000
387971.808000 3551518.316002 1.327000 143 255 0 0.000000
387972.703000 3551518.568001 0.648001 117 255 0 0.000000
387971.593000 3551517.908997 -0.204000 83 255 0 0.000000
387970.704000 3551518.208000 1.129000 135 255 0 0.000000
387972.654000 3551518.900002 0.796000 122 255 0 0.000000
387970.633000 3551518.420998 1.007000 130 255 0 0.000000
387972.540000 3551518.886002 0.132000 97 255 0 0.000000
387971.514000 3551518.614998 0.167999 98 255 0 0.000000
387970.574000 3551518.675003 0.978001 130 255 0 0.000000
387971.433000 3551518.805000 -0.039000 90 255 0 0.000000
387970.451000 3551518.735001 0.481001 110 255 0 0.000000
387970.402000 3551519.009003 0.516001 112 255 0 0.000000
387971.705000 3551516.646004 -7.485001 0 56 198 0.000000
387970.325000 3551519.223999 0.374001 106 255 0 0.000000
387971.631000 3551516.968002 -7.490002 0 56 198 0.000000
387970.164000 3551519.189003 -0.381001 77 255 0 0.000000
387976.310000 3551518.596001 -7.477001 0 56 198 0.000000
387972.781000 3551517.742996 -7.129002 0 70 184 0.000000
387973.876000 3551518.241997 -7.519001 0 54 200 0.000000
387973.803000 3551518.574997 -7.455002 0 57 197 0.000000
387972.598000 3551518.179001 -7.634998 0 50 204 0.000000
387970.215000 3551517.575996 -7.476002 0 56 198 0.000000
387973.726000 3551518.875000 -7.473999 0 56 198 0.000000
387972.587000 3551518.818001 -6.723000 0 85 169 0.000000
387973.650000 3551519.202003 -7.433998 0 58 196 0.000000
387972.547000 3551519.299004 -6.237999 0 104 150 0.000000
387971.352000 3551518.837997 -6.632000 0 88 166 0.000000
387973.576000 3551519.505997 -7.417999 0 59 195 0.000000
387972.479000 3551519.603996 -6.200001 0 106 148 0.000000
387971.283000 3551519.128998 -6.638000 0 88 166 0.000000
387971.201000 3551519.397003 -6.749001 0 84 170 0.000000
387971.064000 3551519.470001 -7.410999 0 59 195 0.000000
387973.786000 3551508.491997 0.712999 119 255 0 0.000000
387973.645000 3551508.970001 0.433001 108 255 0 0.000000
387975.820000 3551510.738998 1.683001 157 255 0 0.000000
387974.687000 3551509.316002 -0.033001 90 255 0 0.000000
387973.616000 3551509.647003 0.966999 129 255 0 0.000000
387972.477000 3551509.195999 0.777000 121 255 0 0.000000
387976.802000 3551512.110001 2.886999 204 255 0 0.000000
387975.742000 3551510.158997 0.277000 102 255 0 0.000000
387974.631000 3551509.806000 0.222000 100 255 0 0.000000
387973.548000 3551509.879997 0.834000 124 255 0 0.000000
387972.435000 3551509.632004 0.950001 128 255 0 0.000000
387976.737000 3551512.234001 2.594000 192 255 0 0.000000
387975.682000 3551511.199997 1.419001 147 255 0 0.000000
387974.557000 3551510.028999 0.054001 94 255 0 0.000000
387972.442000 3551510.426003 1.669001 157 255 0 0.000000
387977.794000 3551511.408997 0.247000 101 255 0 0.000000
387976.673000 3551512.417999 2.415001 185 255 0 0.000000
387975.624000 3551511.945999 2.136000 174 255 0 0.000000
387974.507000 3551510.569000 0.417000 107 255 0 0.000000
387973.402000 3551510.278000 0.462000 109 255 0 0.000000
387972.377000 3551510.649002 1.548000 151 255 0 0.000000
387977.740000 3551511.389000 -0.319000 79 255 0 0.000000
387976.605000 3551512.689003 2.362000 183 255 0 0.000000
387975.552000 3551511.964996 1.665001 156 255 0 0.000000
387974.438000 3551510.848000 0.348000 105 255 0 0.000000
387973.365000 3551510.837997 0.837999 124 255 0 0.000000
387972.308000 3551510.891998 1.427000 147 255 0 0.000000
387976.536000 3551512.954002 2.306999 181 255 0 0.000000
387975.488000 3551512.383003 1.855000 163 255 0 0.000000
387974.370000 3551511.101997 0.247999 101 255 0 0.000000
387973.274000 3551510.872002 0.389999 106 255 0 0.000000
387972.246000 3551511.155998 1.358999 144 255 0 0.000000
387977.574000 3551512.241997 0.066000 94 255 0 0.000000
387976.466000 3551513.378998 2.528999 189 255 0 0.000000
387975.392000 3551511.518997 -0.101999 88 255 0 0.000000
387974.285000 3551511.121002 -0.238001 83 255 0 0.000000
387972.023000 3551510.388000 -0.382000 77 255 0 0.000000
387977.509000 3551512.353996 -0.288000 80 255 0 0.000000
387976.400000 3551513.541000 2.297001 180 255 0 0.000000
387975.375000 3551513.628998 2.950001 206 255 0 0.000000
387973.191000 3551511.836998 0.943001 128 255 0 0.000000
387971.954000 3551510.656998 -0.478001 73 255 0 0.000000
387976.332000 3551513.857002 2.339001 182 255 0 0.000000
387975.314000 3551513.943001 2.993999 207 255 0 0.000000
387974.238000 3551512.848999 1.622999 154 255 0 0.000000
387973.109000 3551511.964996 0.645000 116 255 0 0.000000
387972.127000 3551512.374001 1.850000 163 255 0 0.000000
387977.281000 3551514.367996 2.218000 177 255 0 0.000000
387976.266000 3551513.960999 2.011999 169 255 0 0.000000
387975.248000 3551514.127998 2.820999 201 255 0 0.000000
387974.166000 3551513.013000 1.396999 145 255 0 0.000000
387972.997000 3551511.838997 -0.087000 88 255 0 0.000000
387972.063000 3551512.619003 1.761999 160 255 0 0.000000
387977.238000 3551514.154999 1.312000 142 255 0 0.000000
387976.195000 3551514.863998 3.115999 213 255 0 0.000000
387975.157000 3551513.725998 1.606001 154 255 0 0.000000
387974.091000 3551513.148003 1.115999 135 255 0 0.000000
387973.091000 3551513.347000 1.983000 169 255 0 0.000000
387971.998000 3551512.856003 1.664000 156 255 0 0.000000
387977.146000 3551514.852997 2.063999 171 255 0 0.000000
387976.133000 3551514.310997 1.604000 154 255 0 0.000000
387975.141000 3551515.109001 3.566000 230 255 0 0.000000
387974.063000 3551513.824997 1.792000 161 255 0 0.000000
387973.210000 3551514.967003 4.306000 255 251 0 0.000000
387971.951000 3551513.192001 1.735001 159 255 0 0.000000
387976.065000 3551514.142998 0.750000 121 255 0 0.000000
387975.050000 3551514.805000 2.500000 189 255 0 0.000000
387973.956000 3551513.646004 0.938000 128 255 0 0.000000
387972.922000 3551513.556999 1.313999 142 255 0 0.000000
387971.798000 3551512.964996 0.813999 123 255 0 0.000000
387977.092000 3551513.510002 -1.566000 31 255 0 0.000000
387975.993000 3551513.528000 -0.947001 55 255 0 0.000000
387974.989000 3551515.122002 2.565001 191 255 0 0.000000
387974.027000 3551515.322998 3.450001 225 255 0 0.000000
387973.101000 3551515.521004 4.315001 255 250 0 0.000000
387972.070000 3551515.014999 3.917000 243 255 0 0.000000
387976.963000 3551515.084000 0.856001 124 255 0 0.000000
387975.930000 3551515.314003 1.848000 163 255 0 0.000000
387974.922000 3551515.353996 2.464001 187 255 0 0.000000
387973.979000 3551515.714996 3.656000 234 255 0 0.000000
387972.903000 3551514.829002 2.555000 190 255 0 0.000000
387971.701000 3551513.648003 0.962000 129 255 0 0.000000
387976.865000 3551516.070000 2.221001 177 255 0 0.000000
387975.863000 3551515.461998 1.600000 154 255 0 0.000000
387974.884000 3551516.009003 3.187000 215 255 0 0.000000
387973.911000 3551515.869003 3.451000 225 255 0 0.000000
387972.859000 3551515.163002 2.671000 195 255 0 0.000000
387971.770000 3551514.556000 2.098000 173 255 0 0.000000
387976.798000 3551516.286003 2.098000 173 255 0 0.000000
387975.801000 3551516.140999 2.365999 183 255 0 0.000000
387974.854000 3551516.800003 4.176001 254 255 0 0.000000
387973.838000 3551516.015999 3.207001 216 255 0 0.000000
387972.774000 3551515.279999 2.358000 183 255 0 0.000000
387971.611000 3551514.334000 1.153999 136 255 0 0.000000
387977.880000 3551514.975998 -1.691000 26 255 0 0.000000
387976.726000 3551516.667000 2.304001 180 255 0 0.000000
387975.730000 3551516.073997 1.688999 157 255 0 0.000000
387974.784000 3551516.898003 3.855000 241 255 0 0.000000
387973.801000 3551516.467003 3.551001 229 255 0 0.000000
387972.714000 3551515.528000 2.301001 180 255 0 0.000000
387977.805000 3551515.239998 -1.761999 23 255 0 0.000000
387976.662000 3551516.848999 2.122999 174 255 0 0.000000
387975.665000 3551516.364998 1.716000 158 255 0 0.000000
387974.555000 3551514.738998 -0.919001 56 255 0 0.000000
387973.499000 3551514.666000 -0.466000 74 255 0 0.000000
387972.695000 3551516.033997 2.742001 198 255 0 0.000000
387971.750000 3551516.075996 3.367001 222 255 0 0.000000
387977.805000 3551514.564003 -3.804001 0 198 56 0.000000
387976.593000 3551517.116997 2.105000 173 255 0 0.000000
387975.593000 3551516.459999 1.339001 143 255 0 0.000000
387974.628000 3551516.956001 2.909000 204 255 0 0.000000
387973.576000 3551516.128998 1.823999 163 255 0 0.000000
387972.681000 3551516.560997 3.223000 216 255 0 0.000000
387977.718000 3551514.971001 -3.604000 0 207 47 0.000000
387976.544000 3551516.636002 0.531000 112 255 0 0.000000
387975.548000 3551517.473999 2.851999 202 255 0 0.000000
387974.546000 3551516.956001 2.365000 183 255 0 0.000000
387973.600000 3551517.051003 3.115000 213 255 0 0.000000
387972.659000 3551517.021004 3.604000 231 255 0 0.000000
387977.720000 3551514.207001 -5.896000 0 118 136 0.000000
387976.479000 3551516.809998 0.319000 103 255 0 0.000000
387974.511000 3551517.515999 2.976000 207 255 0 0.000000
387973.528000 3551517.196999 2.889999 204 255 0 0.000000
387972.408000 3551516.180000 1.417000 146 255 0 0.000000
387977.628000 3551514.621002 -5.708000 0 124 130 0.000000
387976.410000 3551516.941002 -0.017000 91 255 0 0.000000
387975.416000 3551517.872002 2.568001 191 255 0 0.000000
387974.444000 3551517.742996 2.874001 203 255 0 0.000000
387973.429000 3551517.191002 2.306999 181 255 0 0.000000
387972.460000 3551517.074997 2.639000 194 255 0 0.000000
387971.315000 3551516.211998 1.483000 149 255 0 0.000000
387977.480000 3551515.887001 -3.612000 0 206 48 0.000000
387976.353000 3551516.333000 -1.952999 15 255 0 0.000000
387975.317000 3551517.181999 0.524000 112 255 0 0.000000
387974.367000 3551517.809998 2.468000 187 255 0 0.000000
387973.368000 3551517.429001 2.256001 179 255 0 0.000000
387972.478000 3551517.711998 3.415001 224 255 0 0.000000
387971.128000 3551515.918999 0.353001 105 255 0 0.000000
387976.280000 3551516.592003 -2.032000 12 255 0 0.000000
387975.243000 3551517.315002 0.204000 99 255 0 0.000000
387974.251000 3551517.507004 1.242001 139 255 0 0.000000
387973.177000 3551516.810997 0.374001 106 255 0 0.000000
387972.418000 3551517.952003 3.361000 222 255 0 0.000000
387971.066000 3551516.194000 0.322001 104 255 0 0.000000
387977.375000 3551515.665001 -5.500999 0 133 121 0.000000
387976.199000 3551517.864998 0.167000 98 255 0 0.000000
387975.175000 3551517.569000 0.149000 97 255 0 0.000000
387974.177000 3551517.667999 1.000999 130 255 0 0.000000
387973.104000 3551517.012001 0.208000 100 255 0 0.000000
387972.215000 3551517.486000 1.827999 163 255 0 0.000000
387971.083000 3551516.762001 0.921000 127 255 0 0.000000
387977.295000 3551515.945999 -5.570000 0 130 124 0.000000
387976.131000 3551517.858002 -0.473000 73 255 0 0.000000
387975.108000 3551517.843002 0.143999 97 255 0 0.000000
387974.147000 3551518.250000 1.688000 157 255 0 0.000000
387973.033000 3551517.231003 0.080000 94 255 0 0.000000
387971.822000 3551516.152000 -1.601999 29 255 0 0.000000
387971.136000 3551517.450996 1.795000 161 255 0 0.000000
387975.043000 3551518.130997 0.176001 98 255 0 0.000000
387974.092000 3551518.571999 1.816000 162 255 0 0.000000
387972.808000 3551516.507004 -2.129000 8 255 0 0.000000
387971.846000 3551516.834000 -0.747000 62 255 0 0.000000
387970.984000 3551517.348000 1.004999 130 255 0 0.000000
387974.965000 3551518.234001 -0.230000 83 255 0 0.000000
387974.030000 3551518.852997 1.841999 163 255 0 0.000000
387972.966000 3551518.130997 0.844000 124 255 0 0.000000
387971.747000 3551516.957001 -1.115000 48 255 0 0.000000
387971.005000 3551517.917000 1.635000 155 255 0 0.000000
387973.970000 3551519.122002 1.858000 163 255 0 0.000000
387971.951000 3551518.396004 1.474001 148 255 0 0.000000
387970.913000 3551518.045998 1.334000 143 255 0 0.000000
387971.930000 3551518.811996 1.819000 162 255 0 0.000000
387970.835000 3551518.234001 1.157000 136 255 0 0.000000
387971.711000 3551518.402000 0.271000 102 255 0 0.000000
387970.730000 3551518.328003 0.768000 121 255 0 0.000000
387972.669000 3551518.921997 0.165001 97 255 0 0.000000
387971.653000 3551518.690002 0.295000 103 255 0 0.000000
387970.648000 3551518.525002 0.587000 114 255 0 0.000000
387972.605000 3551519.179001 0.136999 97 255 0 0.000000
387971.547000 3551518.772003 -0.146999 85 255 0 0.000000
387970.602000 3551518.822998 0.660000 117 255 0 0.000000
387971.502000 3551519.109001 -0.004000 91 255 0 0.000000
387970.498000 3551518.952003 0.315001 103 255 0 0.000000
387971.826000 3551516.654999 -7.499001 0 56 198 0.000000
387970.452000 3551519.234001 0.372999 106 255 0 0.000000
387970.288000 3551519.193001 -0.398001 76 255 0 0.000000
387972.909000 3551517.804001 -7.021000 0 74 180 0.000000
387972.811000 3551517.973999 -7.383999 0 59 195 0.000000
387973.921000 3551518.585999 -7.478001 0 56 198 0.000000
387972.719000 3551518.204002 -7.618999 0 50 204 0.000000
387970.338000 3551517.601997 -7.451000 0 57 197 0.000000
387973.845000 3551518.891998 -7.484001 0 56 198 0.000000
387972.703000 3551518.816002 -6.780998 0 83 171 0.000000
387973.773000 3551519.207001 -7.435001 0 58 196 0.000000
387972.668000 3551519.291000 -6.271000 0 103 151 0.000000
387971.488000 3551518.887001 -6.500000 0 94 160 0.000000
387973.694000 3551519.528000 -7.418999 0 59 195 0.000000
387972.595000 3551519.614998 -6.234001 0 104 150 0.000000
387971.418000 3551519.212997 -6.465000 0 95 159 0.000000
387971.336000 3551519.459000 -6.601002 0 90 164 0.000000
387971.254000 3551519.730003 -6.698002 0 86 168 0.000000
387974.010000 3551508.448997 0.709000 119 255 0 0.000000
387973.868000 3551508.872002 0.355000 105 255 0 0.000000
387974.914000 3551509.292999 -0.009001 91 255 0 0.000000
387973.847000 3551509.702003 1.106001 134 255 0 0.000000
387972.671000 3551508.939003 0.441999 109 255 0 0.000000
387977.017000 3551512.274002 3.209999 216 255 0 0.000000
387975.970000 3551510.124001 0.290001 103 255 0 0.000000
387974.859000 3551509.786003 0.261000 101 255 0 0.000000
387973.764000 3551509.737999 0.683001 118 255 0 0.000000
387972.651000 3551509.523003 0.851000 124 255 0 0.000000
387976.961000 3551512.194000 2.596001 192 255 0 0.000000
387975.907000 3551511.122002 1.362000 145 255 0 0.000000
387974.782000 3551509.928001 -0.034000 90 255 0 0.000000
387973.706000 3551510.109001 0.750000 121 255 0 0.000000
387972.546000 3551509.512001 0.325001 104 255 0 0.000000
387976.893000 3551512.469002 2.551001 190 255 0 0.000000
387975.824000 3551510.370003 -0.357000 77 255 0 0.000000
387973.638000 3551510.359001 0.642000 116 255 0 0.000000
387972.510000 3551509.986000 0.562000 113 255 0 0.000000
387977.968000 3551511.370003 -0.283001 80 255 0 0.000000
387976.831000 3551512.560997 2.211000 177 255 0 0.000000
387975.781000 3551512.203003 2.115999 174 255 0 0.000000
387974.665000 3551510.816002 0.361000 106 255 0 0.000000
387973.593000 3551510.830002 0.891001 126 255 0 0.000000
387972.457000 3551510.334000 0.611000 115 255 0 0.000000
387976.759000 3551512.932999 2.323999 182 255 0 0.000000
387975.709000 3551512.238998 1.667999 156 255 0 0.000000
387974.655000 3551512.015999 1.797001 161 255 0 0.000000
387973.534000 3551511.167999 0.920000 127 255 0 0.000000
387972.473000 3551511.161003 1.414000 146 255 0 0.000000
387976.691000 3551513.223999 2.313999 181 255 0 0.000000
387975.649000 3551512.796997 2.096001 173 255 0 0.000000
387974.629000 3551512.862999 2.700001 196 255 0 0.000000
387973.462000 3551511.383003 0.761999 121 255 0 0.000000
387972.283000 3551510.584000 -0.014000 91 255 0 0.000000
387976.623000 3551513.577003 2.429001 186 255 0 0.000000
387975.588000 3551513.186996 2.268000 180 255 0 0.000000
387974.564000 3551513.046997 2.532000 189 255 0 0.000000
387973.403000 3551511.666000 0.735001 120 255 0 0.000000
387972.167000 3551510.500999 -0.652000 66 255 0 0.000000
387976.554000 3551513.889000 2.447001 186 255 0 0.000000
387975.526000 3551513.640999 2.523001 189 255 0 0.000000
387974.460000 3551512.806000 1.600000 154 255 0 0.000000
387973.334000 3551511.945000 0.660999 117 255 0 0.000000
387972.353000 3551512.387001 1.914000 166 255 0 0.000000
387976.487000 3551514.138000 2.382000 184 255 0 0.000000
387975.470000 3551514.128998 2.877001 203 255 0 0.000000
387974.391000 3551512.996002 1.427000 147 255 0 0.000000
387973.190000 3551511.532997 -0.545000 71 255 0 0.000000
387972.291000 3551512.615997 1.815001 162 255 0 0.000000
387976.416000 3551514.882004 3.191999 216 255 0 0.000000
387975.376000 3551513.609001 1.447001 148 255 0 0.000000
387974.318000 3551513.175003 1.209999 139 255 0 0.000000
387973.230000 3551512.675003 0.868999 125 255 0 0.000000
387972.225000 3551512.865997 1.719999 158 255 0 0.000000
387977.625000 3551510.056000 -6.710999 0 85 169 0.000000
387976.353000 3551514.803001 2.539000 190 255 0 0.000000
387975.339000 3551514.596001 2.687000 195 255 0 0.000000
387974.363000 3551514.726997 3.429001 225 255 0 0.000000
387973.413000 3551514.835999 4.114000 251 255 0 0.000000
387972.172000 3551513.168999 1.735001 159 255 0 0.000000
387976.288000 3551515.065002 2.514999 189 255 0 0.000000
387975.274000 3551514.766998 2.499001 189 255 0 0.000000
387974.307000 3551515.013000 3.455000 225 255 0 0.000000
387973.161000 3551513.624001 1.504000 150 255 0 0.000000
387972.042000 3551513.024002 0.989000 130 255 0 0.000000
387977.321000 3551513.511002 -1.492001 33 255 0 0.000000
387976.222000 3551514.681999 1.271000 141 255 0 0.000000
387975.209000 3551515.022003 2.438999 186 255 0 0.000000
387974.279000 3551515.625999 4.056000 249 255 0 0.000000
387973.297000 3551515.336998 4.035000 248 255 0 0.000000
387971.918000 3551512.968002 0.353001 105 255 0 0.000000
387977.261000 3551513.487999 -2.128000 8 255 0 0.000000
387976.156000 3551515.541000 2.344999 183 255 0 0.000000
387975.142000 3551515.239998 2.319000 181 255 0 0.000000
387974.210000 3551515.788002 3.854000 241 255 0 0.000000
387973.238000 3551515.570000 3.962999 246 255 0 0.000000
387972.176000 3551514.935997 3.337000 221 255 0 0.000000
387976.090000 3551516.007004 2.691999 196 255 0 0.000000
387975.073000 3551515.435997 2.149000 174 255 0 0.000000
387974.125000 3551515.806999 3.375000 222 255 0 0.000000
387973.085000 3551515.186996 2.750000 198 255 0 0.000000
387971.859000 3551513.860001 0.872000 125 255 0 0.000000
387977.125000 3551513.662003 -3.014999 0 229 25 0.000000
387976.025000 3551516.241997 2.612000 192 255 0 0.000000
387974.985000 3551515.272003 1.299000 142 255 0 0.000000
387974.058000 3551515.989998 3.205999 216 255 0 0.000000
387973.020000 3551515.405998 2.643000 194 255 0 0.000000
387971.931000 3551514.790001 2.045000 171 255 0 0.000000
387976.958000 3551516.421997 1.872000 164 255 0 0.000000
387975.959000 3551516.420998 2.426001 186 255 0 0.000000
387974.842000 3551514.273003 -1.188999 45 255 0 0.000000
387974.005000 3551516.308998 3.298000 219 255 0 0.000000
387973.024000 3551516.070000 3.375000 222 255 0 0.000000
387972.033000 3551515.842003 3.478001 226 255 0 0.000000
387978.034000 3551515.239998 -1.698000 26 255 0 0.000000
387976.882000 3551516.924004 2.327999 182 255 0 0.000000
387975.894000 3551516.681000 2.400000 184 255 0 0.000000
387974.903000 3551516.531998 2.664000 195 255 0 0.000000
387973.921000 3551516.344002 2.841999 201 255 0 0.000000
387972.964000 3551516.306000 3.309999 220 255 0 0.000000
387971.951000 3551515.967003 3.205999 216 255 0 0.000000
387977.952000 3551515.598000 -1.573999 30 255 0 0.000000
387976.851000 3551516.060997 0.003000 91 255 0 0.000000
387975.835000 3551517.207001 2.917000 204 255 0 0.000000
387974.841000 3551516.789001 2.636999 194 255 0 0.000000
387973.882000 3551516.781998 3.174000 215 255 0 0.000000
387972.945000 3551516.792000 3.733000 237 255 0 0.000000
387971.920000 3551516.339996 3.400999 223 255 0 0.000000
387977.950000 3551514.956001 -3.563999 0 208 46 0.000000
387976.771000 3551516.628998 0.579000 114 255 0 0.000000
387975.769000 3551517.435997 2.827000 201 255 0 0.000000
387974.679000 3551515.718002 -0.087000 88 255 0 0.000000
387973.815000 3551516.986000 3.034000 209 255 0 0.000000
387972.870000 3551516.946999 3.504000 228 255 0 0.000000
387976.705000 3551516.796997 0.350000 105 255 0 0.000000
387974.669000 3551516.695000 1.341000 143 255 0 0.000000
387973.733000 3551517.043999 2.627001 193 255 0 0.000000
387972.762000 3551516.900002 2.900999 204 255 0 0.000000
387977.855000 3551514.744003 -5.356001 0 139 115 0.000000
387976.638000 3551516.926003 0.018000 92 255 0 0.000000
387975.605000 3551516.717003 0.190001 99 255 0 0.000000
387974.616000 3551517.107002 1.613001 154 255 0 0.000000
387973.648000 3551517.136002 2.254999 179 255 0 0.000000
387972.722000 3551517.260002 3.073000 210 255 0 0.000000
387971.504000 3551516.028000 1.180000 137 255 0 0.000000
387977.711000 3551515.898003 -3.514999 0 210 44 0.000000
387976.583000 3551516.315002 -1.927000 17 255 0 0.000000
387975.543000 3551517.169998 0.556999 113 255 0 0.000000
387974.540000 3551517.233002 1.304001 142 255 0 0.000000
387973.582000 3551517.346001 2.129000 174 255 0 0.000000
387972.707000 3551517.740997 3.516001 228 255 0 0.000000
387971.456000 3551516.335999 1.242001 139 255 0 0.000000
387977.638000 3551516.120003 -3.694000 0 203 51 0.000000
387976.512000 3551516.556000 -2.038000 12 255 0 0.000000
387975.471000 3551517.308998 0.256001 101 255 0 0.000000
387974.503000 3551517.778000 1.885000 165 255 0 0.000000
387973.408000 3551516.816002 0.450001 109 255 0 0.000000
387972.629000 3551517.876999 3.261000 218 255 0 0.000000
387971.497000 3551517.003998 2.044001 171 255 0 0.000000
387977.607000 3551515.702003 -5.341999 0 139 115 0.000000
387976.438000 3551516.740997 -2.290001 2 255 0 0.000000
387975.404000 3551517.610001 0.295000 103 255 0 0.000000
387974.394000 3551517.579002 0.858999 124 255 0 0.000000
387973.373000 3551517.283997 0.840000 124 255 0 0.000000
387972.523000 3551517.894997 2.735001 198 255 0 0.000000
387971.454000 3551517.330002 2.146000 174 255 0 0.000000
387977.527000 3551515.985001 -5.416000 0 136 118 0.000000
387975.334000 3551517.811996 0.125000 96 255 0 0.000000
387974.336000 3551517.898003 0.958000 129 255 0 0.000000
387973.307000 3551517.525002 0.766001 121 255 0 0.000000
387972.373000 3551517.696999 1.752001 160 255 0 0.000000
387971.254000 3551517.024002 0.938999 128 255 0 0.000000
387975.269000 3551518.123001 0.209000 100 255 0 0.000000
387974.288000 3551518.309998 1.273001 141 255 0 0.000000
387973.194000 3551517.470001 0.044001 93 255 0 0.000000
387971.227000 3551517.410004 1.179001 137 255 0 0.000000
387975.193000 3551518.220001 -0.198000 84 255 0 0.000000
387974.247000 3551518.762001 1.691999 157 255 0 0.000000
387974.181000 3551518.987000 1.606001 154 255 0 0.000000
387972.182000 3551518.399002 1.538000 151 255 0 0.000000
387971.052000 3551517.711998 0.655001 117 255 0 0.000000
387973.824000 3551516.853996 -4.014999 0 190 64 0.000000
387972.154000 3551518.805000 1.841999 163 255 0 0.000000
387970.942000 3551517.806999 0.246000 101 255 0 0.000000
387971.929000 3551518.358002 0.209999 100 255 0 0.000000
387970.848000 3551517.952003 -0.042999 90 255 0 0.000000
387973.612000 3551516.887001 -5.357000 0 139 115 0.000000
387971.855000 3551518.549004 0.042999 93 255 0 0.000000
387970.895000 3551518.556999 0.737000 120 255 0 0.000000
387973.519000 3551517.077003 -5.670000 0 126 128 0.000000
387971.788000 3551518.817001 0.000000 91 255 0 0.000000
387970.867000 3551518.942001 0.975000 129 255 0 0.000000
387971.730000 3551519.077003 -0.006001 91 255 0 0.000000
387970.740000 3551518.969002 0.430000 108 255 0 0.000000
387972.069000 3551516.651001 -7.444000 0 57 197 0.000000
387970.668000 3551519.195000 0.315001 103 255 0 0.000000
387971.995000 3551516.959999 -7.460999 0 56 198 0.000000
387973.159000 3551517.846001 -6.831001 0 81 173 0.000000
387973.074000 3551518.081001 -7.021000 0 74 180 0.000000
387972.980000 3551518.275002 -7.326000 0 62 192 0.000000
387970.581000 3551517.570000 -7.436001 0 58 196 0.000000
387974.086000 3551518.874001 -7.452000 0 57 197 0.000000
387972.889000 3551518.505997 -7.555000 0 53 201 0.000000
387974.010000 3551519.184998 -7.442001 0 57 197 0.000000
387972.881000 3551519.158997 -6.588001 0 91 163 0.000000
387971.730000 3551518.896004 -6.424999 0 97 157 0.000000
387972.810000 3551519.463997 -6.577000 0 91 163 0.000000
387971.673000 3551519.244003 -6.287998 0 102 152 0.000000
387972.744000 3551519.792000 -6.493000 0 94 160 0.000000
387971.593000 3551519.505997 -6.391998 0 98 156 0.000000
387971.524000 3551519.820000 -6.367001 0 99 155 0.000000
387970.359000 3551519.496002 -6.373001 0 99 155 0.000000
387973.076000 3551508.831001 0.787001 122 255 0 0.000000
387976.290000 3551510.977997 1.639999 155 255 0 0.000000
387974.103000 3551510.017998 1.107000 134 255 0 0.000000
387972.906000 3551509.057999 0.132999 97 255 0 0.000000
387977.274000 3551512.100998 2.459999 187 255 0 0.000000
387976.224000 3551511.299004 1.655001 156 255 0 0.000000
387975.082000 3551509.487999 -0.716000 64 255 0 0.000000
387974.061000 3551510.539001 1.424999 147 255 0 0.000000
387972.848000 3551509.377998 0.122999 96 255 0 0.000000
387977.257000 3551510.904999 0.013000 92 255 0 0.000000
387976.157000 3551511.547997 1.559999 152 255 0 0.000000
387973.984000 3551510.668999 1.139000 136 255 0 0.000000
387972.810000 3551509.850998 0.355000 105 255 0 0.000000
387977.135000 3551512.726997 2.493000 188 255 0 0.000000
387976.076000 3551510.783997 -0.201000 83 255 0 0.000000
387974.943000 3551510.075996 -0.834000 59 255 0 0.000000
387973.924000 3551511.000000 1.153999 136 255 0 0.000000
387972.777000 3551510.374001 0.662001 117 255 0 0.000000
387977.117000 3551511.400002 -0.216999 83 255 0 0.000000
387976.025000 3551512.272003 1.747999 160 255 0 0.000000
387974.966000 3551511.940002 1.697001 157 255 0 0.000000
387973.856000 3551511.199997 0.990999 130 255 0 0.000000
387972.652000 3551510.177002 -0.136999 86 255 0 0.000000
387977.042000 3551511.744003 -0.174999 85 255 0 0.000000
387975.960000 3551512.697998 1.948000 167 255 0 0.000000
387973.824000 3551511.799004 1.454000 148 255 0 0.000000
387972.558000 3551510.272003 -0.514000 71 255 0 0.000000
387976.962000 3551512.432999 0.469999 109 255 0 0.000000
387975.901000 3551513.331001 2.514999 189 255 0 0.000000
387974.877000 3551513.128998 2.667000 195 255 0 0.000000
387973.739000 3551511.851997 1.038000 132 255 0 0.000000
387972.492000 3551510.532997 -0.608999 68 255 0 0.000000
387976.902000 3551512.189003 -0.499001 72 255 0 0.000000
387975.841000 3551513.839996 2.879000 203 255 0 0.000000
387974.796000 3551513.144997 2.188000 176 255 0 0.000000
387973.590000 3551511.375000 -0.287001 80 255 0 0.000000
387972.673000 3551512.430000 1.989000 169 255 0 0.000000
387976.839000 3551512.070000 -1.245001 43 255 0 0.000000
387975.779000 3551514.079002 2.806000 201 255 0 0.000000
387974.720000 3551513.181000 1.757999 160 255 0 0.000000
387973.524000 3551511.626999 -0.372999 77 255 0 0.000000
387972.604000 3551512.614998 1.818001 162 255 0 0.000000
387976.739000 3551513.998001 1.631001 155 255 0 0.000000
387975.709000 3551514.184998 2.479000 188 255 0 0.000000
387974.656000 3551513.464996 1.730000 159 255 0 0.000000
387973.453000 3551511.874001 -0.497000 72 255 0 0.000000
387972.467000 3551512.421997 0.973000 129 255 0 0.000000
387976.667000 3551514.574997 2.146999 174 255 0 0.000000
387975.651000 3551514.607002 2.722000 197 255 0 0.000000
387974.632000 3551514.231003 2.563999 191 255 0 0.000000
387973.381000 3551512.099998 -0.643000 66 255 0 0.000000
387972.533000 3551513.452003 2.229000 178 255 0 0.000000
387976.599000 3551515.011002 2.424999 186 255 0 0.000000
387975.578000 3551514.628998 2.253000 179 255 0 0.000000
387974.480000 3551513.386002 0.545000 112 255 0 0.000000
387973.656000 3551515.053001 4.021999 248 255 0 0.000000
387972.357000 3551513.029999 0.990999 130 255 0 0.000000
387976.532000 3551515.144997 2.127001 174 255 0 0.000000
387975.512000 3551514.903999 2.212000 177 255 0 0.000000
387974.588000 3551515.723999 4.216999 255 254 0 0.000000
387973.582000 3551515.219002 3.802000 239 255 0 0.000000
387972.274000 3551513.206001 0.747999 121 255 0 0.000000
387976.466000 3551515.389000 2.059999 171 255 0 0.000000
387975.451000 3551515.217003 2.278000 180 255 0 0.000000
387974.396000 3551514.483002 1.455000 148 255 0 0.000000
387973.557000 3551515.696999 4.187000 254 255 0 0.000000
387972.465000 3551514.842003 3.160000 214 255 0 0.000000
387976.400000 3551515.897003 2.499001 189 255 0 0.000000
387975.386000 3551515.433998 2.160999 175 255 0 0.000000
387974.391000 3551515.359001 2.554001 190 255 0 0.000000
387973.378000 3551515.067001 2.542000 190 255 0 0.000000
387972.407000 3551515.094002 3.115000 213 255 0 0.000000
387977.476000 3551513.271004 -3.757999 0 201 53 0.000000
387976.334000 3551516.138000 2.420000 185 255 0 0.000000
387975.325000 3551515.786003 2.287001 180 255 0 0.000000
387974.335000 3551515.682999 2.627001 193 255 0 0.000000
387973.333000 3551515.440002 2.702000 196 255 0 0.000000
387972.335000 3551515.280998 2.938000 205 255 0 0.000000
387977.305000 3551515.640999 0.327000 104 255 0 0.000000
387976.267000 3551516.133003 1.867001 164 255 0 0.000000
387975.067000 3551512.458000 -4.697001 0 164 90 0.000000
387974.264000 3551515.851997 2.424000 186 255 0 0.000000
387973.344000 3551516.167000 3.552000 229 255 0 0.000000
387972.219000 3551515.231003 2.334999 182 255 0 0.000000
387977.224000 3551516.162003 0.799000 122 255 0 0.000000
387976.197000 3551515.719002 0.493000 110 255 0 0.000000
387975.198000 3551516.287003 2.188000 176 255 0 0.000000
387974.175000 3551515.838997 1.867001 164 255 0 0.000000
387973.291000 3551516.446999 3.575001 230 255 0 0.000000
387972.225000 3551515.806000 2.895000 204 255 0 0.000000
387978.268000 3551515.697998 -1.354000 39 255 0 0.000000
387977.154000 3551516.432999 0.767000 121 255 0 0.000000
387976.142000 3551517.278000 3.055000 210 255 0 0.000000
387975.039000 3551515.039001 -0.858000 58 255 0 0.000000
387974.192000 3551516.831001 3.254999 218 255 0 0.000000
387973.097000 3551515.850998 1.889999 165 255 0 0.000000
387972.182000 3551516.147003 3.011000 208 255 0 0.000000
387977.085000 3551516.680000 0.705000 118 255 0 0.000000
387976.078000 3551517.400002 2.770000 199 255 0 0.000000
387975.043000 3551516.369003 1.247999 140 255 0 0.000000
387974.129000 3551517.026001 3.127001 213 255 0 0.000000
387973.000000 3551515.863998 1.391001 145 255 0 0.000000
387972.143000 3551516.457001 3.107000 212 255 0 0.000000
387977.017000 3551516.939003 0.656000 117 255 0 0.000000
387976.012000 3551517.561996 2.545000 190 255 0 0.000000
387974.960000 3551516.374001 0.677999 118 255 0 0.000000
387974.004000 3551516.757004 2.035999 171 255 0 0.000000
387972.923000 3551516.046997 1.186001 137 255 0 0.000000
387976.984000 3551516.050003 -1.844000 20 255 0 0.000000
387974.941000 3551517.267998 1.952999 167 255 0 0.000000
387973.939000 3551516.977997 1.931000 166 255 0 0.000000
387973.026000 3551517.244003 3.039000 210 255 0 0.000000
387972.003000 3551516.847000 2.804001 200 255 0 0.000000
387976.909000 3551516.337997 -1.868000 19 255 0 0.000000
387975.841000 3551516.526001 -0.820000 59 255 0 0.000000
387974.905000 3551517.897003 2.694000 196 255 0 0.000000
387973.876000 3551517.236000 1.889999 165 255 0 0.000000
387973.002000 3551517.696999 3.410000 224 255 0 0.000000
387972.012000 3551517.400002 3.367001 222 255 0 0.000000
387978.026000 3551515.429001 -5.231001 0 143 111 0.000000
387976.838000 3551516.497002 -2.167000 7 255 0 0.000000
387975.758000 3551516.337997 -1.851999 20 255 0 0.000000
387974.847000 3551518.179001 2.732000 198 255 0 0.000000
387973.827000 3551517.585999 2.059000 171 255 0 0.000000
387972.848000 3551517.417000 2.288000 180 255 0 0.000000
387971.947000 3551517.608002 3.257000 218 255 0 0.000000
387975.725000 3551517.690002 0.481001 110 255 0 0.000000
387974.739000 3551517.899002 1.558001 152 255 0 0.000000
387973.683000 3551517.239998 0.750000 121 255 0 0.000000
387972.735000 3551517.387001 1.667000 156 255 0 0.000000
387971.744000 3551517.241997 1.959000 168 255 0 0.000000
387975.654000 3551517.845001 0.216000 100 255 0 0.000000
387974.671000 3551518.102997 1.417000 146 255 0 0.000000
387973.642000 3551517.650002 1.045000 132 255 0 0.000000
387972.687000 3551517.702003 1.766001 160 255 0 0.000000
387971.677000 3551517.457001 1.848000 163 255 0 0.000000
387976.649000 3551515.088997 -7.438000 0 58 196 0.000000
387975.581000 3551517.975998 -0.122999 86 255 0 0.000000
387974.606000 3551518.363998 1.389000 145 255 0 0.000000
387973.569000 3551517.853996 0.882999 126 255 0 0.000000
387972.288000 3551516.293999 -1.881001 18 255 0 0.000000
387971.538000 3551517.403000 1.146999 136 255 0 0.000000
387974.538000 3551518.597000 1.296000 142 255 0 0.000000
387973.572000 3551518.542999 1.798000 161 255 0 0.000000
387971.262000 3551516.842003 -0.672001 65 255 0 0.000000
387975.372000 3551517.088997 -3.493999 0 210 44 0.000000
387974.238000 3551516.632004 -3.827000 0 198 56 0.000000
387971.414000 3551517.889000 1.030001 131 255 0 0.000000
387974.156000 3551516.830002 -4.070999 0 188 66 0.000000
387972.438000 3551518.686996 1.561001 152 255 0 0.000000
387971.359000 3551518.177002 1.054001 133 255 0 0.000000
387974.102000 3551517.272003 -3.732000 0 201 53 0.000000
387972.349000 3551518.806000 1.231001 139 255 0 0.000000
387971.291000 3551518.393997 0.941999 128 255 0 0.000000
387973.873000 3551517.177002 -5.423000 0 136 118 0.000000
387972.119000 3551518.874001 0.125999 96 255 0 0.000000
387971.117000 3551518.728996 0.465000 109 255 0 0.000000
387977.265000 3551517.603996 -7.592999 0 52 202 0.000000
387972.066000 3551519.164001 0.176001 98 255 0 0.000000
387971.012000 3551518.833000 0.079000 94 255 0 0.000000
387972.415000 3551516.628998 -7.478001 0 56 198 0.000000
387972.016000 3551519.447998 0.238001 100 255 0 0.000000
387973.502000 3551517.849998 -6.835999 0 81 173 0.000000
387973.428000 3551518.144997 -6.863998 0 80 174 0.000000
387973.325000 3551518.292000 -7.310001 0 62 192 0.000000
387973.245000 3551518.543999 -7.445000 0 57 197 0.000000
387972.132000 3551518.536003 -6.577999 0 91 163 0.000000
