387979.155000 3551518.959999 2.867001 203 255 0 0.000000
387978.616000 3551517.984001 1.162001 136 255 0 0.000000
387977.914000 3551517.141998 -0.194000 84 255 0 0.000000
387981.138000 3551519.614998 2.606001 192 255 0 0.000000
387980.800000 3551518.486000 0.451000 109 255 0 0.000000
387979.043000 3551519.254997 2.941000 206 255 0 0.000000
387978.541000 3551518.234001 1.094999 134 255 0 0.000000
387977.863000 3551517.353996 -0.367001 77 255 0 0.000000
387980.234000 3551519.375000 1.996000 169 255 0 0.000000
387979.233000 3551519.109001 1.951000 167 255 0 0.000000
387978.390000 3551518.606003 1.344000 144 255 0 0.000000
387977.899000 3551517.405998 -0.910999 56 255 0 0.000000
387979.216000 3551519.266998 1.694000 157 255 0 0.000000
387978.925000 3551517.866997 -1.129999 47 255 0 0.000000
387977.827000 3551517.655998 -0.985001 53 255 0 0.000000
387979.262000 3551519.335999 1.205999 138 255 0 0.000000
387977.962000 3551517.531998 -1.983999 14 255 0 0.000000
387978.526000 3551516.647003 -4.917999 0 155 99 0.000000
387982.517000 3551516.566002 1.962000 168 255 0 0.000000
387982.420000 3551516.836998 1.934999 166 255 0 0.000000
387981.096000 3551516.970001 2.783001 199 255 0 0.000000
387982.374000 3551517.039001 1.774000 160 255 0 0.000000
387980.768000 3551517.568001 3.490999 227 255 0 0.000000
387980.258000 3551516.550003 1.851000 163 255 0 0.000000
387982.463000 3551517.067001 1.229000 139 255 0 0.000000
387980.732000 3551517.747002 3.309000 220 255 0 0.000000
387979.817000 3551517.363998 3.013000 208 255 0 0.000000
387982.361000 3551517.347000 1.219999 139 255 0 0.000000
387980.709000 3551517.915001 3.079000 211 255 0 0.000000
387979.761000 3551517.577003 2.884001 204 255 0 0.000000
387981.769000 3551518.238998 2.636999 194 255 0 0.000000
387980.605000 3551518.191002 3.110001 212 255 0 0.000000
387979.534000 3551518.046997 3.341000 221 255 0 0.000000
387978.615000 3551517.694000 3.114000 213 255 0 0.000000
387981.628000 3551518.556999 2.764000 198 255 0 0.000000
387980.558000 3551518.387001 2.962999 207 255 0 0.000000
387979.417000 3551518.350998 3.437000 225 255 0 0.000000
387978.585000 3551517.861000 2.899000 204 255 0 0.000000
387978.620000 3551515.678001 -1.344999 39 255 0 0.000000
387981.638000 3551518.691002 2.445000 186 255 0 0.000000
387980.262000 3551518.930000 3.603001 231 255 0 0.000000
387979.291000 3551518.667000 3.555000 229 255 0 0.000000
387978.504000 3551518.114998 2.867001 203 255 0 0.000000
387981.318000 3551519.224998 3.115000 213 255 0 0.000000
387980.260000 3551519.060997 3.327000 221 255 0 0.000000
387979.241000 3551518.863998 3.434999 225 255 0 0.000000
387978.843000 3551517.663002 1.243000 139 255 0 0.000000
387981.303000 3551519.388000 2.872999 203 255 0 0.000000
387980.172000 3551519.317001 3.313000 220 255 0 0.000000
387979.169000 3551519.098999 3.368999 222 255 0 0.000000
387978.770000 3551517.910004 1.173000 137 255 0 0.000000
387978.112000 3551516.982002 -0.368000 77 255 0 0.000000
387981.309000 3551519.525002 2.576000 192 255 0 0.000000
387980.160000 3551519.467003 3.056999 210 255 0 0.000000
387979.182000 3551519.208000 3.020000 209 255 0 0.000000
387978.399000 3551518.643997 2.270000 180 255 0 0.000000
387977.995000 3551517.313004 -0.250999 82 255 0 0.000000
387981.243000 3551519.748001 2.490999 188 255 0 0.000000
387980.227000 3551519.514999 2.545000 190 255 0 0.000000
387979.204000 3551519.301003 2.622999 193 255 0 0.000000
387978.452000 3551518.680000 1.726000 158 255 0 0.000000
387978.052000 3551517.323997 -0.891001 57 255 0 0.000000
387979.341000 3551519.237999 1.809000 162 255 0 0.000000
387978.456000 3551518.800003 1.358999 144 255 0 0.000000
387977.961000 3551517.612000 -0.889999 57 255 0 0.000000
387979.358000 3551519.346001 1.424000 147 255 0 0.000000
387977.903000 3551517.834999 -1.025999 52 255 0 0.000000
387978.758000 3551516.406998 -5.266001 0 142 112 0.000000
387978.032000 3551517.848999 -2.422001 0 252 2 0.000000
387982.593000 3551517.012001 1.965000 168 255 0 0.000000
387980.194000 3551516.975998 2.989000 207 255 0 0.000000
387982.338000 3551517.481003 2.392000 184 255 0 0.000000
387980.942000 3551517.737000 3.518999 228 255 0 0.000000
387980.062000 3551517.304001 3.118000 213 255 0 0.000000
387980.865000 3551517.971001 3.472000 226 255 0 0.000000
387979.757000 3551517.892998 3.837000 240 255 0 0.000000
387982.261000 3551517.862000 2.041000 171 255 0 0.000000
387980.806000 3551518.185997 3.354000 222 255 0 0.000000
387979.685000 3551518.128998 3.768999 238 255 0 0.000000
387978.854000 3551517.646004 3.252001 218 255 0 0.000000
387981.849000 3551518.523003 2.945000 206 255 0 0.000000
387980.779000 3551518.357002 3.149000 213 255 0 0.000000
387979.616000 3551518.358002 3.700001 235 255 0 0.000000
387978.814000 3551517.828003 3.073000 210 255 0 0.000000
387982.403000 3551517.982002 1.044001 132 255 0 0.000000
387980.500000 3551518.874001 3.725000 236 255 0 0.000000
387979.614000 3551518.487000 3.392000 223 255 0 0.000000
387978.686000 3551518.161003 3.216000 216 255 0 0.000000
387978.893000 3551515.692001 -1.698999 26 255 0 0.000000
387982.211000 3551518.367996 1.313999 142 255 0 0.000000
387980.427000 3551519.106003 3.671000 234 255 0 0.000000
387979.443000 3551518.869003 3.680000 234 255 0 0.000000
387978.653000 3551518.333000 3.017000 208 255 0 0.000000
387982.306000 3551518.397003 0.750000 121 255 0 0.000000
387980.375000 3551519.305000 3.556999 230 255 0 0.000000
387979.410000 3551519.040001 3.499001 228 255 0 0.000000
387978.658000 3551518.440002 2.674999 195 255 0 0.000000
387978.433000 3551516.783997 -0.531000 71 255 0 0.000000
387982.392000 3551518.447998 0.191000 99 255 0 0.000000
387980.355000 3551519.472000 3.327000 221 255 0 0.000000
387979.471000 3551519.079002 2.966000 207 255 0 0.000000
387978.608000 3551518.642998 2.525999 189 255 0 0.000000
387978.286000 3551517.175003 -0.297001 80 255 0 0.000000
387981.680000 3551519.455002 2.025999 170 255 0 0.000000
387980.344000 3551519.621002 3.070000 210 255 0 0.000000
387979.410000 3551519.297997 2.875000 203 255 0 0.000000
387978.532000 3551518.888000 2.486000 188 255 0 0.000000
387978.216000 3551517.418999 -0.385000 77 255 0 0.000000
387980.428000 3551519.650002 2.504999 189 255 0 0.000000
387978.624000 3551518.862999 1.792000 161 255 0 0.000000
387978.206000 3551517.556999 -0.726999 63 255 0 0.000000
387980.360000 3551519.882004 2.422001 186 255 0 0.000000
387978.660000 3551518.931999 1.299999 142 255 0 0.000000
387978.211000 3551517.668999 -1.146999 47 255 0 0.000000
387980.766000 3551516.406998 1.908001 166 255 0 0.000000
387981.286000 3551517.541000 3.209000 216 255 0 0.000000
387980.376000 3551517.137001 2.874001 203 255 0 0.000000
387979.904000 3551515.973999 0.962999 129 255 0 0.000000
387982.506000 3551517.667999 2.330000 182 255 0 0.000000
387981.125000 3551517.897003 3.408001 224 255 0 0.000000
387979.936000 3551517.939003 4.030001 248 255 0 0.000000
387982.356000 3551518.000000 2.474001 187 255 0 0.000000
387981.038000 3551518.149002 3.386000 223 255 0 0.000000
387979.954000 3551518.031998 3.667999 234 255 0 0.000000
387979.713000 3551516.541000 0.973000 129 255 0 0.000000
387982.405000 3551518.080002 2.048000 171 255 0 0.000000
387980.925000 3551518.435997 3.447001 225 255 0 0.000000
387979.758000 3551518.453003 4.028000 248 255 0 0.000000
387979.037000 3551517.802002 3.132999 213 255 0 0.000000
387982.553000 3551518.045998 1.327999 143 255 0 0.000000
387980.793000 3551518.751999 3.563000 230 255 0 0.000000
387979.716000 3551518.641998 3.861000 241 255 0 0.000000
387978.949000 3551518.068001 3.124001 213 255 0 0.000000
387982.444000 3551518.328003 1.351000 144 255 0 0.000000
387980.687000 3551519.028000 3.607000 231 255 0 0.000000
387979.720000 3551518.760002 3.546000 229 255 0 0.000000
387978.867000 3551518.320000 3.108000 212 255 0 0.000000
387982.380000 3551518.551003 1.257999 140 255 0 0.000000
387980.613000 3551519.258003 3.566000 230 255 0 0.000000
387979.650000 3551518.987000 3.493999 227 255 0 0.000000
387978.830000 3551518.497002 2.930000 205 255 0 0.000000
387978.303000 3551517.418999 1.041000 132 255 0 0.000000
387980.549000 3551519.481003 3.474001 226 255 0 0.000000
387979.634000 3551519.139999 3.235001 217 255 0 0.000000
387978.841000 3551518.600998 2.549999 190 255 0 0.000000
387978.566000 3551517.047997 -0.455999 74 255 0 0.000000
387980.534000 3551519.637001 3.236000 217 255 0 0.000000
387979.717000 3551519.148003 2.636999 194 255 0 0.000000
387978.635000 3551519.058998 3.014999 208 255 0 0.000000
387978.144000 3551517.936996 0.962000 129 255 0 0.000000
387980.665000 3551519.608002 2.511999 189 255 0 0.000000
387979.642000 3551519.390999 2.583000 192 255 0 0.000000
387978.725000 3551519.033997 2.323000 181 255 0 0.000000
387978.214000 3551517.929001 0.285000 103 255 0 0.000000
387980.634000 3551519.788002 2.316000 181 255 0 0.000000
387978.759000 3551519.103996 1.858999 163 255 0 0.000000
387978.441000 3551517.636002 -1.084999 50 255 0 0.000000
387978.814000 3551519.139999 1.309999 142 255 0 0.000000
387978.361000 3551517.898003 -1.118000 48 255 0 0.000000
387977.998000 3551516.304001 -5.080999 0 149 105 0.000000
387982.392000 3551515.976997 1.094999 134 255 0 0.000000
387980.787000 3551516.670998 2.504999 189 255 0 0.000000
387981.462000 3551517.560997 3.292000 219 255 0 0.000000
387980.478000 3551517.274002 3.209000 216 255 0 0.000000
387981.384000 3551517.805000 3.228001 216 255 0 0.000000
387980.309000 3551517.658997 3.448999 225 255 0 0.000000
387979.689000 3551516.792000 2.132999 174 255 0 0.000000
387982.536000 3551518.015999 2.535000 189 255 0 0.000000
387981.324000 3551518.018997 3.120001 213 255 0 0.000000
387980.156000 3551518.018997 3.662001 234 255 0 0.000000
387979.271000 3551517.615997 3.326000 221 255 0 0.000000
387979.176000 3551515.693001 -0.243999 82 255 0 0.000000
387981.161000 3551518.375999 3.330999 221 255 0 0.000000
387980.149000 3551518.152000 3.377001 222 255 0 0.000000
387979.174000 3551517.894997 3.357000 222 255 0 0.000000
387981.035000 3551518.685997 3.430000 225 255 0 0.000000
387979.988000 3551518.523003 3.613001 231 255 0 0.000000
387979.068000 3551518.190002 3.421000 224 255 0 0.000000
387980.911000 3551518.983002 3.537001 228 255 0 0.000000
387979.879000 3551518.806999 3.688999 234 255 0 0.000000
387979.110000 3551518.234001 2.945999 206 255 0 0.000000
387978.506000 3551517.285004 1.382000 145 255 0 0.000000
387982.512000 3551518.629997 1.452999 148 255 0 0.000000
387980.823000 3551519.237999 3.518000 228 255 0 0.000000
387979.935000 3551518.852997 3.183001 215 255 0 0.000000
387978.962000 3551518.598999 3.169001 214 255 0 0.000000
387978.419000 3551517.559998 1.372000 145 255 0 0.000000
387982.313000 3551519.018997 1.750000 160 255 0 0.000000
387980.796000 3551519.408997 3.318001 220 255 0 0.000000
387980.030000 3551518.842003 2.547001 190 255 0 0.000000
387978.850000 3551518.900002 3.271999 219 255 0 0.000000
387978.447000 3551517.621002 0.889999 126 255 0 0.000000
387982.427000 3551519.028999 1.136000 136 255 0 0.000000
387980.820000 3551519.510002 2.959999 207 255 0 0.000000
387979.838000 3551519.248001 2.914000 204 255 0 0.000000
387978.807000 3551519.085999 3.115000 213 255 0 0.000000
387978.374000 3551517.865997 0.834999 124 255 0 0.000000
387982.378000 3551519.246002 0.973000 129 255 0 0.000000
387980.868000 3551519.594002 2.493999 188 255 0 0.000000
387979.948000 3551519.227997 2.201000 177 255 0 0.000000
387978.866000 3551519.119003 2.545000 190 255 0 0.000000
387978.286000 3551518.147003 0.823999 124 255 0 0.000000
387979.719000 3551519.689003 2.701000 196 255 0 0.000000
387978.978000 3551519.059998 1.768000 160 255 0 0.000000
387977.725000 3551517.036003 -1.844999 20 255 0 0.000000
387978.990000 3551519.168999 1.384001 145 255 0 0.000000
387978.549000 3551517.911003 -1.080000 50 255 0 0.000000
387978.183000 3551516.321999 -5.007000 0 152 102 0.000000
387978.052000 3551516.703003 -4.818001 0 160 94 0.000000
387980.928000 3551516.830002 2.594000 192 255 0 0.000000
387982.096000 3551517.026001 1.882999 165 255 0 0.000000
387980.632000 3551517.412003 3.254999 218 255 0 0.000000
387982.005000 3551517.292000 1.848000 163 255 0 0.000000
387980.591000 3551517.601997 3.077000 211 255 0 0.000000
387979.655000 3551517.251999 2.868999 203 255 0 0.000000
387981.585000 3551518.005997 2.837000 201 255 0 0.000000
387980.507000 3551517.851997 3.047001 210 255 0 0.000000
387979.500000 3551517.627998 3.108999 212 255 0 0.000000
387979.306000 3551515.891998 -0.077999 88 255 0 0.000000
387981.317000 3551518.501999 3.381001 222 255 0 0.000000
387980.308000 3551518.275002 3.419001 224 255 0 0.000000
387979.269000 3551518.128998 3.643999 233 255 0 0.000000
387981.487000 3551518.410004 2.552999 190 255 0 0.000000
387980.124000 3551518.680000 3.732000 237 255 0 0.000000
387979.234000 3551518.305000 3.441999 225 255 0 0.000000
387979.385000 3551515.973000 -1.165001 46 255 0 0.000000
387981.118000 3551519.042999 3.419001 224 255 0 0.000000
387979.990000 3551519.003998 3.891001 243 255 0 0.000000
387979.104000 3551518.636002 3.607000 231 255 0 0.000000
387978.697000 3551517.363998 1.299000 142 255 0 0.000000
387981.012000 3551519.320999 3.455999 225 255 0 0.000000
387980.095000 3551518.976997 3.216000 216 255 0 0.000000
387979.059000 3551518.829002 3.447001 225 255 0 0.000000
387978.591000 3551517.672997 1.370001 145 255 0 0.000000
387982.403000 3551519.223999 1.992001 169 255 0 0.000000
387981.041000 3551519.416000 3.087000 211 255 0 0.000000
387980.556000 3551518.431000 1.318001 142 255 0 0.000000
387979.055000 3551518.950996 3.149000 213 255 0 0.000000
387978.572000 3551517.820000 1.096001 134 255 0 0.000000
387978.082000 3551516.450996 -1.431999 35 255 0 0.000000
387981.024000 3551519.580002 2.841000 201 255 0 0.000000
387980.064000 3551519.280998 2.709999 197 255 0 0.000000
387978.991000 3551519.177002 3.056999 210 255 0 0.000000
387978.542000 3551517.989998 0.844999 124 255 0 0.000000
387978.630000 3551515.427002 -4.485001 0 172 82 0.000000
387981.034000 3551519.704002 2.516001 189 255 0 0.000000
387979.027000 3551519.239998 2.591999 192 255 0 0.000000
387978.337000 3551518.475998 1.358000 144 255 0 0.000000
387978.612000 3551515.577003 -4.857000 0 158 96 0.000000
387979.952000 3551519.704002 2.486000 188 255 0 0.000000
387979.096000 3551519.251999 1.985001 169 255 0 0.000000
387977.900000 3551517.148003 -1.844000 20 255 0 0.000000
387979.213000 3551519.198997 1.181000 137 255 0 0.000000
387977.840000 3551517.380997 -1.993000 14 255 0 0.000000
387978.324000 3551516.513000 -4.844000 0 158 96 0.000000
387981.035000 3551516.689003 2.461000 187 255 0 0.000000
387982.162000 3551516.945999 1.864000 164 255 0 0.000000
387980.696000 3551517.343002 3.256001 218 255 0 0.000000
387980.375000 3551515.931000 0.827000 124 255 0 0.000000
387982.045000 3551517.245003 1.917999 166 255 0 0.000000
387980.615000 3551517.589996 3.216999 216 255 0 0.000000
387979.721000 3551517.175003 2.868999 203 255 0 0.000000
387979.320000 3551515.782997 0.478001 110 255 0 0.000000
387981.617000 3551517.981003 2.931000 205 255 0 0.000000
387980.562000 3551517.797997 3.076000 211 255 0 0.000000
387979.570000 3551517.549004 3.084999 211 255 0 0.000000
387979.358000 3551515.820000 -0.065001 88 255 0 0.000000
387981.604000 3551518.132004 2.673000 195 255 0 0.000000
387980.586000 3551517.886002 2.684000 195 255 0 0.000000
387979.415000 3551517.927002 3.333000 221 255 0 0.000000
387981.520000 3551518.380997 2.639000 194 255 0 0.000000
387980.189000 3551518.612999 3.730000 236 255 0 0.000000
387979.277000 3551518.273003 3.523001 228 255 0 0.000000
387979.424000 3551515.918999 -1.106001 48 255 0 0.000000
387980.106000 3551518.860001 3.709000 235 255 0 0.000000
387979.212000 3551518.496002 3.443001 225 255 0 0.000000
387978.738000 3551517.322998 1.377001 145 255 0 0.000000
387981.072000 3551519.258003 3.472000 226 255 0 0.000000
387980.116000 3551518.969002 3.367001 222 255 0 0.000000
387979.115000 3551518.772003 3.483999 227 255 0 0.000000
387978.661000 3551517.577003 1.332001 143 255 0 0.000000
387982.447000 3551519.177002 2.021000 170 255 0 0.000000
387981.031000 3551519.448997 3.302000 219 255 0 0.000000
387980.598000 3551518.385002 1.355000 144 255 0 0.000000
387979.083000 3551518.944000 3.270000 219 255 0 0.000000
387978.590000 3551517.820000 1.253000 140 255 0 0.000000
387981.074000 3551519.527000 2.870001 203 255 0 0.000000
387980.092000 3551519.262001 2.823000 201 255 0 0.000000
387979.070000 3551519.083000 2.992001 207 255 0 0.000000
387978.615000 3551517.885002 0.771999 121 255 0 0.000000
387978.478000 3551515.747002 -3.547001 0 209 45 0.000000
387981.088000 3551519.646004 2.528999 189 255 0 0.000000
387980.048000 3551519.454002 2.667000 195 255 0 0.000000
387979.071000 3551519.197998 2.652000 195 255 0 0.000000
387978.461000 3551518.279999 1.063000 133 255 0 0.000000
387977.973000 3551516.908997 -1.532000 32 255 0 0.000000
387980.094000 3551519.518997 2.186001 176 255 0 0.000000
387979.153000 3551519.185997 1.990000 169 255 0 0.000000
387978.308000 3551518.670998 1.360001 144 255 0 0.000000
387977.763000 3551517.449997 -0.930000 56 255 0 0.000000
387979.933000 3551518.058998 -1.466999 35 255 0 0.000000
387977.808000 3551517.568001 -2.039000 12 255 0 0.000000
387978.283000 3551516.704002 -4.908001 0 156 98 0.000000
387982.391000 3551516.777000 1.822001 162 255 0 0.000000
387980.820000 3551517.335999 3.547001 229 255 0 0.000000
387982.471000 3551516.799004 1.268999 141 255 0 0.000000
387980.765000 3551517.541000 3.421000 224 255 0 0.000000
387980.211000 3551516.541000 1.844000 163 255 0 0.000000
387982.397000 3551517.038002 1.186001 137 255 0 0.000000
387980.747000 3551517.692001 3.174000 215 255 0 0.000000
387979.797000 3551517.370003 3.027000 209 255 0 0.000000
387982.309000 3551517.304001 1.143000 136 255 0 0.000000
387980.660000 3551517.949997 3.146999 213 255 0 0.000000
387979.759000 3551517.551003 2.827000 201 255 0 0.000000
387981.722000 3551518.251999 2.671000 195 255 0 0.000000
387980.709000 3551518.000000 2.669001 195 255 0 0.000000
387979.550000 3551518.019997 3.278000 219 255 0 0.000000
387978.614000 3551517.695999 3.115000 213 255 0 0.000000
387981.593000 3551518.561996 2.778000 199 255 0 0.000000
387980.392000 3551518.605003 3.444000 225 255 0 0.000000
387979.413000 3551518.364998 3.466000 226 255 0 0.000000
387978.895000 3551517.268997 1.589001 153 255 0 0.000000
387978.521000 3551515.625999 -1.420000 36 255 0 0.000000
387981.587000 3551518.705002 2.502001 189 255 0 0.000000
387980.262000 3551518.925003 3.587000 231 255 0 0.000000
387979.300000 3551518.668999 3.566000 230 255 0 0.000000
387978.504000 3551518.112000 2.868000 203 255 0 0.000000
387982.397000 3551519.356003 2.801001 200 255 0 0.000000
387981.367000 3551519.141998 2.900000 204 255 0 0.000000
387980.224000 3551519.109001 3.405001 224 255 0 0.000000
387979.243000 3551518.879997 3.447001 225 255 0 0.000000
387978.803000 3551517.660004 1.226999 139 255 0 0.000000
387978.291000 3551516.318001 -1.198000 45 255 0 0.000000
387981.257000 3551519.424004 2.959000 206 255 0 0.000000
387980.203000 3551519.265999 3.169001 214 255 0 0.000000
387979.184000 3551519.096001 3.350000 222 255 0 0.000000
387978.722000 3551517.920998 1.200001 138 255 0 0.000000
387978.005000 3551517.024002 -0.253000 82 255 0 0.000000
387981.247000 3551519.578003 2.688999 195 255 0 0.000000
387980.191000 3551519.415001 2.893000 204 255 0 0.000000
387979.183000 3551519.217003 3.018000 209 255 0 0.000000
387978.395000 3551518.638000 2.240999 178 255 0 0.000000
387977.919000 3551517.303001 -0.264999 81 255 0 0.000000
387981.215000 3551519.754997 2.507999 189 255 0 0.000000
387980.277000 3551519.415001 2.278999 180 255 0 0.000000
387979.192000 3551519.315002 2.653999 195 255 0 0.000000
387978.422000 3551518.694000 1.764000 160 255 0 0.000000
387977.969000 3551517.295998 -0.923000 56 255 0 0.000000
387979.312000 3551519.244003 1.841999 163 255 0 0.000000
387978.423000 3551518.804001 1.386999 145 255 0 0.000000
387977.884000 3551517.575996 -0.936001 55 255 0 0.000000
387979.322000 3551519.353996 1.445000 148 255 0 0.000000
387977.996000 3551517.448997 -1.940001 16 255 0 0.000000
387978.472000 3551516.578003 -4.804001 0 160 94 0.000000
387977.924000 3551517.810997 -2.483999 0 250 4 0.000000
387982.485000 3551517.001999 1.906000 166 255 0 0.000000
387980.961000 3551517.490997 3.496000 227 255 0 0.000000
387980.729000 3551515.933998 0.761000 121 255 0 0.000000
387982.252000 3551517.460999 2.327000 182 255 0 0.000000
387980.892000 3551517.716003 3.427000 225 255 0 0.000000
387979.962000 3551517.369003 3.225000 216 255 0 0.000000
387979.609000 3551515.905998 0.680000 118 255 0 0.000000
387982.082000 3551517.836998 2.545000 190 255 0 0.000000
387980.793000 3551517.994003 3.444000 225 255 0 0.000000
387979.710000 3551517.917999 3.823000 240 255 0 0.000000
387982.147000 3551517.880997 2.042000 171 255 0 0.000000
387980.755000 3551518.175003 3.264000 218 255 0 0.000000
387979.682000 3551518.075996 3.598000 231 255 0 0.000000
387978.807000 3551517.652000 3.216000 216 255 0 0.000000
387981.809000 3551518.480003 2.799999 200 255 0 0.000000
387980.679000 3551518.414001 3.214001 216 255 0 0.000000
387979.581000 3551518.361000 3.653000 233 255 0 0.000000
387978.767000 3551517.831001 3.028999 209 255 0 0.000000
387982.312000 3551517.934998 0.900999 127 255 0 0.000000
387980.442000 3551518.898003 3.712999 236 255 0 0.000000
387979.599000 3551518.446999 3.249001 218 255 0 0.000000
387978.642000 3551518.171997 3.188999 215 255 0 0.000000
387978.643000 3551515.838997 -1.391001 38 255 0 0.000000
387982.563000 3551517.738998 -0.211000 83 255 0 0.000000
387980.379000 3551519.117996 3.628000 232 255 0 0.000000
387979.400000 3551518.894997 3.683001 234 255 0 0.000000
387978.635000 3551518.290001 2.867001 203 255 0 0.000000
387981.509000 3551519.294998 2.862000 202 255 0 0.000000
387980.352000 3551519.282997 3.416000 224 255 0 0.000000
387979.371000 3551519.057999 3.466000 226 255 0 0.000000
387978.948000 3551517.815002 1.171000 137 255 0 0.000000
387978.530000 3551516.280998 -1.716000 25 255 0 0.000000
387981.578000 3551519.345001 2.334000 182 255 0 0.000000
387980.329000 3551519.445000 3.177999 215 255 0 0.000000
387979.411000 3551519.111000 2.973000 207 255 0 0.000000
387978.600000 3551518.570000 2.290001 180 255 0 0.000000
387978.142000 3551517.197998 -0.284000 80 255 0 0.000000
387981.583000 3551519.473000 2.025999 170 255 0 0.000000
387980.455000 3551519.388000 2.430000 186 255 0 0.000000
387979.360000 3551519.310997 2.851999 202 255 0 0.000000
387978.471000 3551518.913002 2.493999 188 255 0 0.000000
387978.180000 3551517.218002 -0.882999 57 255 0 0.000000
387980.366000 3551519.652000 2.427000 186 255 0 0.000000
387978.566000 3551518.852997 1.704000 157 255 0 0.000000
387978.088000 3551517.514000 -0.871000 58 255 0 0.000000
387980.293000 3551519.890999 2.363001 183 255 0 0.000000
387978.581000 3551518.941002 1.264000 140 255 0 0.000000
387978.032000 3551517.733002 -1.028999 51 255 0 0.000000
387978.148000 3551517.598999 -2.037001 12 255 0 0.000000
387981.106000 3551517.707001 3.527000 228 255 0 0.000000
387980.278000 3551517.191002 2.962000 207 255 0 0.000000
387979.814000 3551515.922997 0.841999 124 255 0 0.000000
387982.402000 3551517.678001 2.322001 181 255 0 0.000000
387981.023000 3551517.959000 3.488001 227 255 0 0.000000
387979.897000 3551517.955002 4.017000 247 255 0 0.000000
387982.184000 3551518.113998 2.695999 196 255 0 0.000000
387980.961000 3551518.178001 3.392000 223 255 0 0.000000
387979.906000 3551518.052002 3.660000 234 255 0 0.000000
387978.845000 3551515.676003 -0.337999 78 255 0 0.000000
387982.292000 3551518.106003 2.055000 171 255 0 0.000000
387980.891000 3551518.411003 3.313000 220 255 0 0.000000
387979.735000 3551518.457001 3.968000 246 255 0 0.000000
387978.953000 3551517.883003 3.247999 217 255 0 0.000000
387982.152000 3551518.432999 2.193001 177 255 0 0.000000
387980.691000 3551518.836998 3.694000 235 255 0 0.000000
387979.707000 3551518.616997 3.752001 237 255 0 0.000000
387978.917000 3551518.055000 3.047001 210 255 0 0.000000
387978.953000 3551515.643997 -1.681999 26 255 0 0.000000
387982.326000 3551518.336998 1.340000 143 255 0 0.000000
387980.614000 3551519.075996 3.650999 233 255 0 0.000000
387979.632000 3551518.858002 3.712999 236 255 0 0.000000
387978.828000 3551518.325996 3.063000 210 255 0 0.000000
387978.267000 3551517.197998 1.111000 135 255 0 0.000000
387982.289000 3551518.532997 1.146000 136 255 0 0.000000
387980.572000 3551519.267998 3.488001 227 255 0 0.000000
387979.603000 3551519.024002 3.492001 227 255 0 0.000000
387978.824000 3551518.441002 2.719999 197 255 0 0.000000
387978.508000 3551516.788002 -0.444000 74 255 0 0.000000
387982.450000 3551518.459000 0.327000 104 255 0 0.000000
387980.502000 3551519.492996 3.434000 225 255 0 0.000000
387979.603000 3551519.137001 3.173000 215 255 0 0.000000
387978.777000 3551518.635002 2.573999 191 255 0 0.000000
387978.463000 3551516.981003 -0.639000 67 255 0 0.000000
387982.490000 3551518.557999 -0.124001 86 255 0 0.000000
387980.503000 3551519.623001 3.112000 212 255 0 0.000000
387979.635000 3551519.207001 2.709000 196 255 0 0.000000
387978.716000 3551518.858002 2.469999 187 255 0 0.000000
387982.303000 3551518.950996 0.172001 98 255 0 0.000000
387980.587000 3551519.630997 2.504000 189 255 0 0.000000
387979.566000 3551519.440002 2.650000 194 255 0 0.000000
387978.673000 3551519.044998 2.295000 180 255 0 0.000000
387978.098000 3551517.945000 0.288000 103 255 0 0.000000
387982.172000 3551519.267998 0.288000 103 255 0 0.000000
387980.571000 3551519.786003 2.246000 178 255 0 0.000000
387978.764000 3551518.991997 1.528000 151 255 0 0.000000
387978.300000 3551517.629997 -1.129999 47 255 0 0.000000
387980.743000 3551516.679001 2.495001 188 255 0 0.000000
387981.427000 3551517.574997 3.266001 218 255 0 0.000000
387980.460000 3551517.279999 3.176001 215 255 0 0.000000
387982.551000 3551517.795998 2.622999 193 255 0 0.000000
387981.300000 3551517.891998 3.382000 222 255 0 0.000000
387980.313000 3551517.642998 3.386000 223 255 0 0.000000
387979.630000 3551516.834000 2.200001 177 255 0 0.000000
387982.486000 3551518.016998 2.538000 190 255 0 0.000000
387981.220000 3551518.135002 3.353001 222 255 0 0.000000
387980.153000 3551518.027000 3.660000 234 255 0 0.000000
387979.280000 3551517.597000 3.261999 218 255 0 0.000000
387979.053000 3551515.737999 -0.148001 85 255 0 0.000000
387982.486000 3551518.162003 2.226999 177 255 0 0.000000
387981.107000 3551518.436996 3.410999 224 255 0 0.000000
387980.145000 3551518.158997 3.349001 222 255 0 0.000000
387979.170000 3551517.912003 3.349001 222 255 0 0.000000
387980.984000 3551518.742996 3.533001 228 255 0 0.000000
387980.000000 3551518.514000 3.572001 230 255 0 0.000000
387979.066000 3551518.209000 3.438999 225 255 0 0.000000
387980.877000 3551519.030998 3.587999 231 255 0 0.000000
387979.885000 3551518.823997 3.677000 234 255 0 0.000000
387979.102000 3551518.250999 2.933001 205 255 0 0.000000
387978.455000 3551517.300003 1.379000 145 255 0 0.000000
387982.455000 3551518.621002 1.422001 147 255 0 0.000000
387980.813000 3551519.253998 3.507999 228 255 0 0.000000
387979.958000 3551518.820999 3.073999 210 255 0 0.000000
387978.956000 3551518.626999 3.198000 216 255 0 0.000000
387978.368000 3551517.577003 1.389999 145 255 0 0.000000
387982.247000 3551519.037003 1.780001 160 255 0 0.000000
387980.790000 3551519.413002 3.280001 219 255 0 0.000000
387980.012000 3551518.852997 2.541000 190 255 0 0.000000
387978.859000 3551518.911003 3.254000 218 255 0 0.000000
387978.393000 3551517.625000 0.875000 125 255 0 0.000000
387980.830000 3551519.488998 2.827999 201 255 0 0.000000
387979.823000 3551519.283997 2.931000 205 255 0 0.000000
387978.813000 3551519.107002 3.094999 212 255 0 0.000000
387978.316000 3551517.884003 0.827000 124 255 0 0.000000
387982.292000 3551519.272003 1.025999 131 255 0 0.000000
387980.833000 3551519.615997 2.506001 189 255 0 0.000000
387979.931000 3551519.231003 2.177000 176 255 0 0.000000
387978.889000 3551519.078003 2.410999 185 255 0 0.000000
387978.276000 3551518.067001 0.614000 115 255 0 0.000000
387979.734000 3551519.669998 2.605000 192 255 0 0.000000
387978.952000 3551519.079002 1.768999 160 255 0 0.000000
387978.638000 3551517.431000 -1.575001 30 255 0 0.000000
387978.960000 3551519.179001 1.379000 145 255 0 0.000000
387978.447000 3551517.926003 -1.052999 50 255 0 0.000000
387982.124000 3551516.542999 1.773001 160 255 0 0.000000
387980.662000 3551517.016998 3.306000 219 255 0 0.000000
387981.561000 3551517.539001 3.306999 220 255 0 0.000000
387980.611000 3551517.216003 3.159000 214 255 0 0.000000
387981.511000 3551517.741997 3.156000 214 255 0 0.000000
387980.493000 3551517.535004 3.253000 218 255 0 0.000000
387981.362000 3551518.098000 3.340000 221 255 0 0.000000
387980.289000 3551517.996002 3.667000 234 255 0 0.000000
387979.564000 3551517.286003 2.676001 195 255 0 0.000000
387981.288000 3551518.330002 3.289000 219 255 0 0.000000
387980.269000 3551518.141998 3.424999 225 255 0 0.000000
387979.263000 3551517.957001 3.563000 230 255 0 0.000000
387979.090000 3551516.003998 -0.091000 88 255 0 0.000000
387982.444000 3551518.502998 2.503000 189 255 0 0.000000
387981.150000 3551518.667000 3.445000 225 255 0 0.000000
387980.187000 3551518.397003 3.398001 223 255 0 0.000000
387979.161000 3551518.252998 3.627001 232 255 0 0.000000
387981.042000 3551518.954002 3.510000 228 255 0 0.000000
387980.002000 3551518.820000 3.770000 238 255 0 0.000000
387979.209000 3551518.266998 3.079000 211 255 0 0.000000
387980.963000 3551519.195999 3.476000 226 255 0 0.000000
387979.985000 3551518.962997 3.507999 228 255 0 0.000000
387979.057000 3551518.653999 3.363001 222 255 0 0.000000
387978.525000 3551517.487999 1.301001 142 255 0 0.000000
387982.400000 3551518.980003 1.733000 159 255 0 0.000000
387980.925000 3551519.380997 3.292000 219 255 0 0.000000
387980.414000 3551518.382004 1.527000 151 255 0 0.000000
387979.114000 3551518.655998 2.757000 198 255 0 0.000000
387978.452000 3551517.739998 1.240999 139 255 0 0.000000
387980.946000 3551519.477997 2.910999 204 255 0 0.000000
387981.083000 3551517.418999 -1.400999 37 255 0 0.000000
387978.943000 3551519.077003 3.136999 213 255 0 0.000000
387978.445000 3551517.849998 0.872000 125 255 0 0.000000
387982.422000 3551519.232002 1.059999 133 255 0 0.000000
387980.956000 3551519.591003 2.570999 191 255 0 0.000000
387980.328000 3551518.765999 1.181999 137 255 0 0.000000
387978.958000 3551519.154999 2.722000 197 255 0 0.000000
387978.333000 3551518.180000 1.014999 131 255 0 0.000000
387979.867000 3551519.634003 2.629000 193 255 0 0.000000
387979.107000 3551519.001999 1.697001 157 255 0 0.000000
387978.810000 3551517.304001 -1.747000 23 255 0 0.000000
387977.756000 3551516.981003 -1.861000 19 255 0 0.000000
387979.035000 3551519.242996 1.655001 156 255 0 0.000000
387978.574000 3551517.889999 -1.010000 52 255 0 0.000000
387978.034000 3551516.592003 -4.948000 0 154 100 0.000000
387982.107000 3551516.844002 1.840000 163 255 0 0.000000
387980.874000 3551516.933998 2.584000 192 255 0 0.000000
387981.971000 3551517.181000 1.971001 168 255 0 0.000000
387980.585000 3551517.542999 3.302000 219 255 0 0.000000
387981.583000 3551517.907997 2.952999 206 255 0 0.000000
387980.560000 3551517.700996 3.061001 210 255 0 0.000000
387979.605000 3551517.390999 2.938000 205 255 0 0.000000
387979.275000 3551515.708000 -0.069000 88 255 0 0.000000
387981.373000 3551518.348999 3.360001 222 255 0 0.000000
387980.484000 3551517.943001 3.020000 209 255 0 0.000000
387979.472000 3551517.744003 3.135000 213 255 0 0.000000
387981.542000 3551518.224998 2.457001 186 255 0 0.000000
387980.293000 3551518.385002 3.391001 223 255 0 0.000000
387979.298000 3551518.181000 3.490000 227 255 0 0.000000
387979.377000 3551515.682999 -1.388000 38 255 0 0.000000
387981.240000 3551518.799004 3.188999 215 255 0 0.000000
387980.125000 3551518.776001 3.702999 235 255 0 0.000000
387979.266000 3551518.341003 3.281000 219 255 0 0.000000
387978.693000 3551517.238998 1.405001 146 255 0 0.000000
387981.060000 3551519.195000 3.507000 228 255 0 0.000000
387980.045000 3551519.023003 3.681999 234 255 0 0.000000
387979.095000 3551518.764999 3.652000 233 255 0 0.000000
387978.615000 3551517.498001 1.368999 145 255 0 0.000000
387982.444000 3551519.043999 1.924000 166 255 0 0.000000
387981.027000 3551519.372002 3.302999 219 255 0 0.000000
387980.088000 3551519.071999 3.184000 215 255 0 0.000000
387979.089000 3551518.880997 3.316000 220 255 0 0.000000
387978.544000 3551517.744003 1.297001 142 255 0 0.000000
387981.042000 3551519.476997 2.941999 206 255 0 0.000000
387980.089000 3551519.186996 2.849001 202 255 0 0.000000
387979.061000 3551519.037003 3.083000 211 255 0 0.000000
387978.550000 3551517.828003 0.865999 125 255 0 0.000000
387981.046000 3551519.598999 2.613001 192 255 0 0.000000
387980.079000 3551519.321999 2.549999 190 255 0 0.000000
387978.991000 3551519.272003 3.025999 209 255 0 0.000000
387978.442000 3551518.150002 0.978001 130 255 0 0.000000
387978.248000 3551515.924004 -3.565001 0 208 46 0.000000
387980.171000 3551519.296997 1.840000 163 255 0 0.000000
387979.167000 3551519.064003 1.893000 165 255 0 0.000000
387978.279000 3551518.585999 1.365000 145 255 0 0.000000
387978.145000 3551516.260002 -3.493000 0 210 44 0.000000
387979.099000 3551519.293999 1.827999 163 255 0 0.000000
387978.676000 3551517.863998 -1.018000 52 255 0 0.000000
387977.784000 3551517.209000 -1.934999 16 255 0 0.000000
387979.161000 3551519.299004 1.170000 137 255 0 0.000000
387978.109000 3551516.614998 -4.846001 0 158 96 0.000000
387982.484000 3551516.492996 1.709999 158 255 0 0.000000
387982.365000 3551516.931999 1.457001 148 255 0 0.000000
387980.783000 3551517.598000 3.440001 225 255 0 0.000000
387980.205000 3551516.582001 1.833000 163 255 0 0.000000
387980.762000 3551517.750000 3.186001 215 255 0 0.000000
387979.625000 3551517.791000 3.811001 240 255 0 0.000000
387981.768000 3551518.097000 2.823999 201 255 0 0.000000
387980.713000 3551517.943001 3.046000 210 255 0 0.000000
387979.772000 3551517.612000 2.875999 203 255 0 0.000000
387981.700000 3551518.325996 2.743000 198 255 0 0.000000
387980.631000 3551518.196999 3.023001 209 255 0 0.000000
387979.496000 3551518.232002 3.652000 233 255 0 0.000000
387978.661000 3551517.704002 3.041000 210 255 0 0.000000
387981.631000 3551518.559998 2.658001 195 255 0 0.000000
387980.429000 3551518.653000 3.443001 225 255 0 0.000000
387979.424000 3551518.473999 3.596001 231 255 0 0.000000
387978.596000 3551517.934998 2.952999 206 255 0 0.000000
387981.354000 3551519.102997 3.295000 219 255 0 0.000000
387980.314000 3551518.959999 3.542999 229 255 0 0.000000
387979.340000 3551518.737000 3.594000 231 255 0 0.000000
387978.537000 3551518.153999 2.844999 202 255 0 0.000000
387981.272000 3551519.347000 3.283001 219 255 0 0.000000
387980.258000 3551519.166000 3.441999 225 255 0 0.000000
387979.303000 3551518.906998 3.412001 224 255 0 0.000000
387978.796000 3551517.699997 1.236000 139 255 0 0.000000
387978.243000 3551516.343002 -1.219000 44 255 0 0.000000
387981.291000 3551519.446999 2.907000 204 255 0 0.000000
387980.230000 3551519.330002 3.222000 216 255 0 0.000000
387979.234000 3551519.139999 3.354000 222 255 0 0.000000
387978.728000 3551517.938004 1.156000 136 255 0 0.000000
387977.982000 3551517.050003 -0.277000 80 255 0 0.000000
387981.330000 3551519.524002 2.450001 186 255 0 0.000000
387980.181000 3551519.530998 3.076000 211 255 0 0.000000
387979.216000 3551519.281998 3.070999 210 255 0 0.000000
387978.401000 3551518.716003 2.326000 182 255 0 0.000000
387977.904000 3551517.320999 -0.315001 80 255 0 0.000000
387980.281000 3551519.491997 2.353001 183 255 0 0.000000
387979.212000 3551519.398003 2.730000 198 255 0 0.000000
387978.460000 3551518.691002 1.642000 155 255 0 0.000000
387977.935000 3551517.331001 -0.951000 54 255 0 0.000000
387980.178000 3551519.781998 2.416000 185 255 0 0.000000
387979.292000 3551519.367996 2.011000 169 255 0 0.000000
387977.847000 3551517.622002 -0.945999 55 255 0 0.000000
387979.344000 3551519.388000 1.412001 146 255 0 0.000000
387977.943000 3551517.480003 -1.966999 15 255 0 0.000000
387978.374000 3551516.556999 -4.938999 0 154 100 0.000000
387977.856000 3551517.862000 -2.441000 0 252 2 0.000000
387982.572000 3551516.823997 2.013000 169 255 0 0.000000
387982.512000 3551517.043999 1.893000 165 255 0 0.000000
387981.057000 3551517.507004 3.430000 225 255 0 0.000000
387980.192000 3551517.035004 2.968000 207 255 0 0.000000
387982.291000 3551517.509003 2.306999 181 255 0 0.000000
387980.939000 3551517.820000 3.533001 228 255 0 0.000000
387980.075000 3551517.360001 3.084000 211 255 0 0.000000
387982.109000 3551517.915001 2.591000 192 255 0 0.000000
387980.853000 3551518.081001 3.514000 228 255 0 0.000000
387979.813000 3551517.959000 3.785999 238 255 0 0.000000
387982.177000 3551517.940002 2.049999 171 255 0 0.000000
387980.830000 3551518.236000 3.277000 219 255 0 0.000000
387979.734000 3551518.209000 3.764000 237 255 0 0.000000
387978.914000 3551517.653999 3.100000 212 255 0 0.000000
387981.839000 3551518.572998 2.879999 203 255 0 0.000000
387980.718000 3551518.537003 3.368000 222 255 0 0.000000
387979.662000 3551518.445000 3.714001 236 255 0 0.000000
387978.841000 3551517.896004 3.052999 210 255 0 0.000000
387982.330000 3551517.974998 0.886999 126 255 0 0.000000
387980.534000 3551518.957001 3.733000 237 255 0 0.000000
387979.620000 3551518.627998 3.545000 229 255 0 0.000000
387978.746000 3551518.188004 3.117001 213 255 0 0.000000
387982.255000 3551518.222000 0.820999 123 255 0 0.000000
387980.483000 3551519.155998 3.601999 231 255 0 0.000000
387979.497000 3551518.959000 3.709999 235 255 0 0.000000
387978.684000 3551518.408997 3.021000 209 255 0 0.000000
387981.570000 3551519.358002 2.870001 203 255 0 0.000000
387980.432000 3551519.360001 3.466999 226 255 0 0.000000
387979.525000 3551519.016998 3.240000 217 255 0 0.000000
387978.704000 3551518.462997 2.540001 190 255 0 0.000000
387978.833000 3551515.584000 -3.389000 0 215 39 0.000000
387981.639000 3551519.386002 2.327000 182 255 0 0.000000
387980.387000 3551519.547997 3.323000 220 255 0 0.000000
387979.518000 3551519.135002 2.926001 205 255 0 0.000000
387978.629000 3551518.710999 2.514999 189 255 0 0.000000
387977.964000 3551517.734001 0.844999 124 255 0 0.000000
387982.088000 3551518.879997 0.414000 107 255 0 0.000000
387980.431000 3551519.601997 2.818001 201 255 0 0.000000
387979.439000 3551519.389999 2.903999 204 255 0 0.000000
387978.562000 3551518.946999 2.444000 186 255 0 0.000000
387978.115000 3551517.459000 -0.443001 74 255 0 0.000000
387980.455000 3551519.685997 2.392000 184 255 0 0.000000
387978.637000 3551518.890999 1.686001 157 255 0 0.000000
387978.101000 3551517.577003 -0.823999 59 255 0 0.000000
387978.076000 3551517.721001 -1.158001 47 255 0 0.000000
387982.610000 3551518.731003 -2.830000 0 237 17 0.000000
387981.231000 3551517.532997 3.326000 220 255 0 0.000000
387980.324000 3551517.133003 3.018000 209 255 0 0.000000
387979.816000 3551515.838997 0.871000 125 255 0 0.000000
387982.398000 3551517.639999 2.427999 186 255 0 0.000000
387981.093000 3551517.878998 3.500999 228 255 0 0.000000
387980.171000 3551517.528999 3.287001 219 255 0 0.000000
387982.238000 3551518.009003 2.649000 194 255 0 0.000000
387981.016000 3551518.123001 3.457001 225 255 0 0.000000
387980.012000 3551517.929001 3.575001 230 255 0 0.000000
387982.314000 3551518.027000 2.070999 171 255 0 0.000000
387980.933000 3551518.377998 3.430000 225 255 0 0.000000
387979.821000 3551518.389999 4.000000 247 255 0 0.000000
387979.069000 3551517.707001 3.056000 210 255 0 0.000000
387982.175000 3551518.361000 2.222000 177 255 0 0.000000
387980.797000 3551518.720001 3.611000 231 255 0 0.000000
387979.764000 3551518.599998 3.893000 243 255 0 0.000000
387978.955000 3551518.037003 3.198000 216 255 0 0.000000
387982.336000 3551518.258003 1.347000 144 255 0 0.000000
387980.702000 3551518.992996 3.636000 233 255 0 0.000000
387979.767000 3551518.699997 3.531000 228 255 0 0.000000
387978.904000 3551518.236000 3.049000 210 255 0 0.000000
387982.309000 3551518.429001 1.129000 135 255 0 0.000000
387980.633000 3551519.220001 3.582001 231 255 0 0.000000
387979.659000 3551519.000999 3.641001 233 255 0 0.000000
387978.829000 3551518.483002 3.028000 209 255 0 0.000000
387978.241000 3551517.334999 1.020000 131 255 0 0.000000
387982.437000 3551518.382004 0.347000 105 255 0 0.000000
387980.571000 3551519.442001 3.488001 227 255 0 0.000000
387979.633000 3551519.155998 3.393999 223 255 0 0.000000
387978.850000 3551518.533997 2.534000 189 255 0 0.000000
387978.443000 3551516.934998 -0.518999 71 255 0 0.000000
387982.442000 3551518.513000 -0.002001 91 255 0 0.000000
387980.548000 3551519.596001 3.247999 217 255 0 0.000000
387979.689000 3551519.162003 2.804001 200 255 0 0.000000
387978.641000 3551519.056999 3.145000 213 255 0 0.000000
387978.101000 3551517.824997 0.875000 125 255 0 0.000000
387982.277000 3551518.889999 0.250000 101 255 0 0.000000
387980.596000 3551519.639999 2.733999 198 255 0 0.000000
387979.660000 3551519.323997 2.572001 191 255 0 0.000000
387978.715000 3551519.000999 2.398001 184 255 0 0.000000
387978.121000 3551517.859001 0.313999 103 255 0 0.000000
387982.169000 3551519.186996 0.295000 103 255 0 0.000000
387980.643000 3551519.691002 2.205000 177 255 0 0.000000
387978.726000 3551519.079002 1.945999 167 255 0 0.000000
387978.192000 3551517.778000 -0.544001 71 255 0 0.000000
387978.765000 3551519.097000 1.355000 144 255 0 0.000000
387978.225000 3551517.781998 -1.197001 45 255 0 0.000000
387980.757000 3551516.581001 2.559999 191 255 0 0.000000
387981.488000 3551517.424004 3.219999 216 255 0 0.000000
387980.510000 3551517.152000 3.180000 215 255 0 0.000000
387981.388000 3551517.707001 3.253000 218 255 0 0.000000
387980.364000 3551517.529999 3.414000 224 255 0 0.000000
387979.932000 3551516.110001 0.975000 129 255 0 0.000000
387982.506000 3551517.892998 2.521000 189 255 0 0.000000
387981.291000 3551517.984001 3.282000 219 255 0 0.000000
387980.193000 3551517.952003 3.753000 237 255 0 0.000000
387979.563000 3551516.984001 2.229000 178 255 0 0.000000
387982.544000 3551517.964996 2.083000 172 255 0 0.000000
387981.197000 3551518.257004 3.301001 219 255 0 0.000000
387980.154000 3551518.130997 3.570000 230 255 0 0.000000
387979.236000 3551517.766998 3.323000 220 255 0 0.000000
387982.416000 3551518.288002 2.187000 176 255 0 0.000000
387981.072000 3551518.582001 3.427999 225 255 0 0.000000
387980.122000 3551518.294998 3.343000 221 255 0 0.000000
387979.110000 3551518.123001 3.513000 228 255 0 0.000000
387982.535000 3551518.242996 1.465000 148 255 0 0.000000
387980.955000 3551518.890999 3.538000 229 255 0 0.000000
387979.960000 3551518.697998 3.662001 234 255 0 0.000000
387979.097000 3551518.240997 3.194000 216 255 0 0.000000
387982.476000 3551518.464996 1.334000 143 255 0 0.000000
387980.859000 3551519.167000 3.570000 230 255 0 0.000000
387979.879000 3551518.954002 3.650000 233 255 0 0.000000
387979.029000 3551518.476997 3.129000 213 255 0 0.000000
387978.409000 3551517.410004 1.312000 142 255 0 0.000000
387982.232000 3551518.949997 1.867001 164 255 0 0.000000
387980.823000 3551519.339996 3.393000 223 255 0 0.000000
387979.848000 3551519.112999 3.438000 225 255 0 0.000000
387978.956000 3551518.719002 3.101000 212 255 0 0.000000
387978.371000 3551517.578003 1.089001 133 255 0 0.000000
387980.826000 3551519.455002 3.054001 210 255 0 0.000000
387979.969000 3551519.002998 2.573000 191 255 0 0.000000
387978.867000 3551518.992996 3.135000 213 255 0 0.000000
387978.324000 3551517.768997 0.895000 126 255 0 0.000000
387982.282000 3551519.152000 1.044001 132 255 0 0.000000
387980.810000 3551519.601997 2.778000 199 255 0 0.000000
387979.825000 3551519.374001 2.829000 201 255 0 0.000000
387978.820000 3551519.184998 2.973000 207 255 0 0.000000
387978.244000 3551518.040001 0.884001 126 255 0 0.000000
387982.405000 3551519.112000 0.291000 103 255 0 0.000000
387980.829000 3551519.693001 2.379999 183 255 0 0.000000
387979.906000 3551519.338997 2.128000 174 255 0 0.000000
387978.965000 3551518.988998 1.891001 165 255 0 0.000000
387978.466000 3551517.601997 -0.787001 61 255 0 0.000000
387978.920000 3551519.180000 1.694000 157 255 0 0.000000
387978.433000 3551517.766998 -1.086000 49 255 0 0.000000
387982.020000 3551516.806999 1.750999 160 255 0 0.000000
387980.739000 3551517.027000 2.763000 198 255 0 0.000000
387981.557000 3551517.705002 3.077999 211 255 0 0.000000
387980.524000 3551517.538002 3.263000 218 255 0 0.000000
387981.449000 3551518.000000 3.155001 214 255 0 0.000000
387980.442000 3551517.792000 3.254000 218 255 0 0.000000
387979.568000 3551517.309998 2.766001 198 255 0 0.000000
387981.339000 3551518.299004 3.232000 217 255 0 0.000000
387980.454000 3551517.874001 2.851000 202 255 0 0.000000
387979.393000 3551517.771004 3.177000 215 255 0 0.000000
387979.058000 3551515.985001 -0.089001 88 255 0 0.000000
387981.458000 3551518.222000 2.455000 186 255 0 0.000000
387980.226000 3551518.403000 3.426001 225 255 0 0.000000
387979.233000 3551518.196999 3.525999 228 255 0 0.000000
387979.238000 3551515.634003 -1.474001 34 255 0 0.000000
387981.128000 3551518.878998 3.364000 222 255 0 0.000000
387980.074000 3551518.785004 3.714001 236 255 0 0.000000
387979.215000 3551518.324997 3.238001 217 255 0 0.000000
387981.006000 3551519.197998 3.489000 227 255 0 0.000000
387979.971000 3551519.080002 3.787001 238 255 0 0.000000
387979.055000 3551518.749001 3.596001 231 255 0 0.000000
387978.540000 3551517.463997 1.281000 141 255 0 0.000000
387982.316000 3551519.079002 1.996000 169 255 0 0.000000
387980.975000 3551519.364998 3.280001 219 255 0 0.000000
387980.341000 3551518.514000 1.879999 164 255 0 0.000000
387979.037000 3551518.877998 3.302999 219 255 0 0.000000
387978.448000 3551517.760002 1.334000 143 255 0 0.000000
387980.973000 3551519.487000 2.958000 206 255 0 0.000000
387980.067000 3551519.120003 2.679001 195 255 0 0.000000
387979.006000 3551519.033997 3.066000 210 255 0 0.000000
387978.450000 3551517.834999 0.878000 125 255 0 0.000000
387982.413000 3551519.209999 1.000000 130 255 0 0.000000
387980.967000 3551519.620003 2.643000 194 255 0 0.000000
387980.030000 3551519.297997 2.473000 187 255 0 0.000000
387978.971000 3551519.202003 2.843000 201 255 0 0.000000
387978.352000 3551518.147003 0.964001 129 255 0 0.000000
387980.165000 3551519.167000 1.534000 151 255 0 0.000000
387979.114000 3551519.002998 1.759001 160 255 0 0.000000
387978.203000 3551518.572998 1.341000 143 255 0 0.000000
387977.699000 3551516.969002 -1.806000 21 255 0 0.000000
387979.045000 3551519.245003 1.687000 157 255 0 0.000000
387978.549000 3551517.851997 -1.055000 50 255 0 0.000000
387979.072000 3551519.292999 1.143999 136 255 0 0.000000
387979.377000 3551518.786003 -0.785999 61 255 0 0.000000
387981.441000 3551515.845001 0.785000 122 255 0 0.000000
387982.094000 3551516.915001 1.872999 164 255 0 0.000000
387980.697000 3551517.367996 3.374001 222 255 0 0.000000
387980.311000 3551515.827003 0.716999 119 255 0 0.000000
387981.600000 3551517.869003 3.323000 220 255 0 0.000000
387980.621000 3551517.614998 3.320000 220 255 0 0.000000
387979.702000 3551517.225998 3.035999 209 255 0 0.000000
387981.634000 3551517.927002 2.872999 203 255 0 0.000000
387980.580000 3551517.792000 3.135000 213 255 0 0.000000
387979.663000 3551517.393997 2.832001 201 255 0 0.000000
387979.255000 3551515.744003 -0.097000 88 255 0 0.000000
387980.532000 3551517.984001 2.982000 207 255 0 0.000000
387979.463000 3551517.905998 3.364000 222 255 0 0.000000
387981.529000 3551518.336998 2.587000 192 255 0 0.000000
387980.679000 3551517.819000 2.006001 169 255 0 0.000000
387979.351000 3551518.234001 3.485001 227 255 0 0.000000
387979.315000 3551515.754997 -1.332001 40 255 0 0.000000
387981.228000 3551518.946999 3.392000 223 255 0 0.000000
387980.197000 3551518.815002 3.657000 234 255 0 0.000000
387979.246000 3551518.542999 3.604000 231 255 0 0.000000
387978.439000 3551517.944000 2.833000 201 255 0 0.000000
